-4.215500 -0.617470 0.000000
4.937918 -3.284424 0.000000
1.633900 3.953742 0.000000
5.136444 -5.678061 0.000000
1.122488 4.320821 0.000000
-6.476571 3.103541 0.000000
-1.042665 5.660970 0.000000
-7.962806 9.222390 0.000000
4.136861 5.495998 0.000000
-5.131246 -1.536089 0.000000
-8.430674 5.676551 0.000000
-4.116957 2.343689 0.000000
-7.430891 -7.689623 0.000000
-1.795979 -6.950069 0.000000
2.431332 6.691197 0.000000
7.416399 8.058972 0.000000
9.871510 -7.133632 0.000000
0.129304 0.542323 0.000000
-6.242415 -4.427985 0.000000
-5.692978 8.631049 0.000000
-4.423604 -5.423896 0.000000
-3.434547 -4.366678 0.000000
1.730704 7.833047 0.000000
7.685681 1.793569 0.000000
-0.044680 0.005007 0.000000
-3.898691 -1.567578 0.000000
-5.327151 -8.460098 0.000000
-7.136342 -5.227906 0.000000
1.072181 -5.548908 0.000000
-1.983453 1.288281 0.000000
5.112423 -4.657420 0.000000
-2.517624 -4.601765 0.000000
-4.132309 -2.513864 0.000000
-5.015190 -9.584257 0.000000
1.049247 5.298084 0.000000
9.017299 -7.394330 0.000000
9.980392 -5.747274 0.000000
-4.438697 2.878002 0.000000
-6.447063 1.378632 0.000000
1.381779 8.803972 0.000000
-0.901595 7.231004 0.000000
-1.443034 -5.243524 0.000000
-2.589448 7.607542 0.000000
-1.325259 -4.177619 0.000000
-7.105020 5.178790 0.000000
4.628440 -3.481290 0.000000
4.905579 8.352709 0.000000
-1.626747 4.945963 0.000000
-0.723284 -1.844723 0.000000
3.789972 1.684147 0.000000
-1.061166 9.435030 0.000000
2.143951 7.222056 0.000000
8.734198 -9.872691 0.000000
-6.678787 3.612460 0.000000
-6.920795 -0.467474 0.000000
7.329414 -5.854443 0.000000
0.931946 7.212297 0.000000
-7.543921 -9.704192 0.000000
-3.668533 6.291613 0.000000
5.789992 -6.387151 0.000000
-6.310694 -4.170130 0.000000
5.296152 -9.294266 0.000000
-5.716056 0.179760 0.000000
-4.610764 2.795505 0.000000
0.658750 4.325300 0.000000
-6.008158 -4.145314 0.000000
-5.297091 1.696113 0.000000
3.943731 7.908660 0.000000
-7.200642 3.526836 0.000000
-0.187813 -0.783422 0.000000
-6.395923 4.786539 0.000000
-1.267120 -7.896176 0.000000
6.195542 9.632867 0.000000
-3.443100 3.176707 0.000000
2.188454 7.800073 0.000000
6.427725 -2.347366 0.000000
-7.296482 1.828728 0.000000
0.092494 -2.363428 0.000000
5.288805 -8.832541 0.000000
-2.064421 -2.215427 0.000000
6.913237 -9.083619 0.000000
-6.989194 7.916005 0.000000
1.019681 6.000833 0.000000
5.529274 3.116717 0.000000
8.594230 -2.265996 0.000000
-7.768061 -2.313678 0.000000
6.199673 5.309349 0.000000
0.280026 6.894884 0.000000
-9.089593 -1.446782 0.000000
4.353318 -2.410685 0.000000
-7.930568 -0.196755 0.000000
-6.019627 -7.191450 0.000000
8.899558 -8.276680 0.000000
0.751700 -3.239844 0.000000
-6.800213 7.453470 0.000000
9.752175 -6.280466 0.000000
7.816805 3.031787 0.000000
6.856821 -5.441851 0.000000
-3.914791 1.469428 0.000000
-9.355458 -8.967412 0.000000
-5.560300 1.621496 0.000000
-6.294189 3.662916 0.000000
0.513649 -7.103737 0.000000
-6.027346 -8.499155 0.000000
-3.498528 -2.535257 0.000000
8.680298 -1.165022 0.000000
-2.265919 -9.590074 0.000000
8.574685 7.391677 0.000000
4.046279 7.868360 0.000000
-1.226480 6.650217 0.000000
0.656615 -7.127308 0.000000
4.348732 -7.401549 0.000000
0.195986 -5.208634 0.000000
-3.443914 2.438252 0.000000
7.483669 -5.762647 0.000000
1.301891 9.455810 0.000000
-9.791402 -8.035421 0.000000
0.801298 8.285391 0.000000
3.979557 -0.203440 0.000000
-8.145476 -6.872611 0.000000
-1.096961 -4.005820 0.000000
-3.654904 9.506158 0.000000
-6.526027 -7.704736 0.000000
-6.232592 2.006091 0.000000
7.364623 6.742355 0.000000
1.044355 9.283373 0.000000
2.172895 -0.152525 0.000000
5.661457 -5.094464 0.000000
7.258951 6.461556 0.000000
-4.468276 8.304236 0.000000
0.549452 -1.567435 0.000000
9.043250 8.613919 0.000000
-1.793939 7.568923 0.000000
7.656666 -2.629000 0.000000
-5.519694 6.546301 0.000000
-3.638912 3.578084 0.000000
1.889696 -0.344729 0.000000
-4.878333 -8.506880 0.000000
0.875755 -3.079177 0.000000
7.582895 -8.112538 0.000000
8.034654 -8.026138 0.000000
-3.434633 1.433934 0.000000
-9.820513 -1.016871 0.000000
-2.882908 1.404999 0.000000
6.501974 7.342819 0.000000
4.148971 0.199493 0.000000
1.079970 3.751136 0.000000
1.342314 -0.912161 0.000000
2.234782 -2.394855 0.000000
3.278273 2.265803 0.000000
-8.472816 8.472229 0.000000
0.934813 -8.352546 0.000000
-5.813278 7.462122 0.000000
6.413951 1.151947 0.000000
5.243361 -4.949422 0.000000
9.101949 -0.841115 0.000000
9.162971 -3.516232 0.000000
9.282000 -3.465491 0.000000
-8.064601 -5.245760 0.000000
2.027489 2.738452 0.000000
3.877752 9.787247 0.000000
-6.944066 -6.224871 0.000000
7.125367 2.433126 0.000000
9.580664 -8.948539 0.000000
0.311796 -3.953687 0.000000
-8.280519 -0.127536 0.000000
-6.701340 7.012673 0.000000
-7.504094 5.995722 0.000000
7.916945 2.910968 0.000000
-2.003090 -1.210018 0.000000
0.496085 -4.761677 0.000000
-1.608391 -4.463358 0.000000
-4.934113 -7.597931 0.000000
-5.225851 -6.523202 0.000000
-2.020155 -2.200063 0.000000
8.520919 3.393806 0.000000
1.982632 -4.162456 0.000000
-6.294773 -8.525718 0.000000
-7.320731 1.965544 0.000000
-3.294695 0.847653 0.000000
9.024479 -5.500109 0.000000
4.210479 2.068840 0.000000
-6.788376 5.071584 0.000000
-0.874810 7.315216 0.000000
-2.590044 -2.317619 0.000000
3.875929 1.321779 0.000000
9.673112 4.622767 0.000000
2.300555 -3.117484 0.000000
-1.828894 -6.550798 0.000000
4.384403 7.710811 0.000000
-3.277868 -3.808283 0.000000
8.213253 1.512289 0.000000
-1.428667 8.947697 0.000000
5.777598 -3.820348 0.000000
9.369640 5.986639 0.000000
-2.878246 9.198331 0.000000
-0.984389 -8.783828 0.000000
8.335367 -8.948979 0.000000
0.238928 2.931348 0.000000
-9.826490 5.500885 0.000000
-0.715970 -5.840728 0.000000
7.887857 5.302700 0.000000
5.531039 -6.796990 0.000000
-7.302824 1.847197 0.000000
-5.187772 -7.231749 0.000000
-7.277618 5.016987 0.000000
-4.288453 0.989617 0.000000
8.981492 -2.272244 0.000000
-9.244299 5.524825 0.000000
-1.576872 -6.496124 0.000000
-3.032540 3.967374 0.000000
-3.989402 -2.851678 0.000000
7.086751 -6.090550 0.000000
0.965585 8.726043 0.000000
-9.258053 7.484588 0.000000
-3.520016 -3.448096 0.000000
9.419681 -0.668305 0.000000
6.196868 -4.510191 0.000000
-1.568228 -7.064797 0.000000
-5.715778 -5.537562 0.000000
-1.578492 -2.803161 0.000000
2.805963 5.352656 0.000000
0.260809 -2.350329 0.000000
9.589677 -5.114990 0.000000
-1.628531 -3.962213 0.000000
-6.576555 5.434169 0.000000
-6.090603 5.743248 0.000000
-0.557579 -3.575767 0.000000
-0.123337 -5.959802 0.000000
-9.306062 5.137527 0.000000
-4.053137 2.481961 0.000000
-4.049545 -7.197816 0.000000
7.480687 4.209402 0.000000
9.134784 2.891548 0.000000
4.524279 -6.990848 0.000000
5.346371 -8.708095 0.000000
9.701427 1.848686 0.000000
-5.492121 -4.874830 0.000000
-5.171473 1.398266 0.000000
-4.649081 -9.216994 0.000000
3.046944 3.791721 0.000000
7.683071 -3.487393 0.000000
-0.614995 0.698125 0.000000
0.928022 -2.419983 0.000000
6.353358 -2.187072 0.000000
-2.540580 -9.598420 0.000000
-7.954485 2.110774 0.000000
6.110593 6.134092 0.000000
-5.672510 -5.258997 0.000000
1.930834 9.499967 0.000000
7.120792 -3.177223 0.000000
-9.489740 5.536660 0.000000
1.941085 6.293519 0.000000
1.746307 -7.308189 0.000000
-6.468305 -0.804067 0.000000
-9.947774 4.622956 0.000000
4.825033 -0.185556 0.000000
-1.109812 -5.317967 0.000000
9.628715 2.933246 0.000000
2.419733 -1.466383 0.000000
-1.524258 5.038315 0.000000
0.411838 -4.865808 0.000000
-9.242101 5.804096 0.000000
-5.709665 4.784801 0.000000
3.251025 1.526123 0.000000
4.378607 -8.051355 0.000000
-4.304997 7.503404 0.000000
-8.176830 -1.242725 0.000000
1.063370 -7.124878 0.000000
-0.871284 6.959900 0.000000
5.364610 -9.235255 0.000000
-9.312889 -4.949046 0.000000
-3.673885 -3.906965 0.000000
-8.765564 -8.348092 0.000000
4.662656 0.093189 0.000000
4.274782 1.013531 0.000000
-6.699928 2.382690 0.000000
1.558621 -2.696772 0.000000
-4.471549 8.297507 0.000000
-3.021805 0.806803 0.000000
-9.011699 -2.433850 0.000000
2.423589 -3.575197 0.000000
-6.797757 -5.488186 0.000000
-4.602900 2.236697 0.000000
-6.304089 2.097098 0.000000
7.349275 -1.308484 0.000000
-9.933892 7.249311 0.000000
7.398258 1.416821 0.000000
-8.994574 3.340046 0.000000
-4.338224 9.918377 0.000000
7.133853 -0.299263 0.000000
0.024760 -5.862738 0.000000
3.463532 5.525768 0.000000
9.375602 0.999087 0.000000
-6.977427 -4.901891 0.000000
-4.579446 -7.659422 0.000000
0.001606 -4.362497 0.000000
-7.654843 -0.506900 0.000000
-6.946949 2.962758 0.000000
7.562411 4.667480 0.000000
-6.763370 -8.972683 0.000000
8.137965 -0.677171 0.000000
3.625959 -7.374771 0.000000
-2.975854 -2.378628 0.000000
-8.192497 -3.191146 0.000000
-3.092853 1.873603 0.000000
-1.296336 3.670673 0.000000
7.354711 1.725119 0.000000
9.086476 4.802587 0.000000
1.440021 2.443832 0.000000
-9.131263 5.632066 0.000000
6.489603 -4.592697 0.000000
2.654582 2.639982 0.000000
8.937829 -2.310532 0.000000
-6.506572 4.306129 0.000000
-4.448475 -7.646093 0.000000
-5.170981 -9.561258 0.000000
-4.798785 7.806270 0.000000
1.792185 8.916969 0.000000
3.526230 4.469616 0.000000
4.934321 -6.801299 0.000000
-8.506404 -7.983621 0.000000
-6.032473 6.663686 0.000000
6.166437 -5.045545 0.000000
8.779652 1.375032 0.000000
2.111425 -6.382747 0.000000
5.348183 4.581688 0.000000
-7.489841 -2.316601 0.000000
1.132713 3.867703 0.000000
0.221537 9.099439 0.000000
2.396828 -6.125867 0.000000
5.179911 -7.544706 0.000000
-2.545559 5.479272 0.000000
1.558753 -9.459251 0.000000
-8.431189 -6.806545 0.000000
-4.710133 -3.950420 0.000000
-1.631296 6.620326 0.000000
9.325784 5.156984 0.000000
5.859726 -4.594239 0.000000
9.260981 -6.017802 0.000000
5.478756 -1.340633 0.000000
8.407915 5.772991 0.000000
3.733458 -6.052962 0.000000
-3.369518 -4.280112 0.000000
0.304091 -7.428512 0.000000
-8.528304 2.789089 0.000000
-4.545408 -0.451571 0.000000
3.140108 6.688045 0.000000
-8.392181 -7.776728 0.000000
7.852315 2.114398 0.000000
9.143771 -1.697999 0.000000
0.912064 -8.187935 0.000000
-0.205013 8.945822 0.000000
1.758157 9.971690 0.000000
-7.287500 -8.966423 0.000000
5.914076 -8.292615 0.000000
3.095443 5.533079 0.000000
-1.607218 6.544933 0.000000
1.024695 -5.836499 0.000000
9.848599 -6.104418 0.000000
8.186237 -7.924340 0.000000
-7.135763 2.717539 0.000000
9.205027 -0.972155 0.000000
9.642366 4.522610 0.000000
8.005947 4.434018 0.000000
-2.804888 4.345702 0.000000
-8.379511 -0.227225 0.000000
2.125331 3.489418 0.000000
-8.930859 5.163112 0.000000
-3.896024 -5.117221 0.000000
3.526332 -8.137704 0.000000
5.187682 -6.665084 0.000000
-3.880120 -7.772372 0.000000
-5.827333 6.936166 0.000000
-7.891294 -3.009672 0.000000
8.074955 0.827285 0.000000
-5.454036 -7.338800 0.000000
7.361665 -8.138497 0.000000
0.532133 0.675150 0.000000
7.669089 9.780029 0.000000
-8.669487 -5.280886 0.000000
9.692188 -3.616847 0.000000
4.010011 3.308674 0.000000
5.299726 3.535090 0.000000
3.726003 5.441060 0.000000
5.634429 9.222853 0.000000
-1.152905 -1.399529 0.000000
8.897626 2.952331 0.000000
-5.594350 -6.000364 0.000000
6.248011 0.832307 0.000000
-2.057904 -2.882184 0.000000
-5.481952 5.763259 0.000000
4.330716 6.306631 0.000000
4.579860 2.428578 0.000000
-1.119903 8.061804 0.000000
-2.758343 -5.445756 0.000000
9.082965 -8.853381 0.000000
2.784489 6.909319 0.000000
4.809757 -3.831802 0.000000
5.385652 -0.847922 0.000000
-9.658103 -6.100611 0.000000
-3.521006 -5.753243 0.000000
-3.101385 -5.618177 0.000000
3.863198 7.377191 0.000000
-6.384321 4.774193 0.000000
2.278215 4.135063 0.000000
-7.739810 6.082567 0.000000
-9.126848 -1.797484 0.000000
4.814952 -2.436014 0.000000
2.583152 -9.683522 0.000000
1.560529 -0.570672 0.000000
-1.970303 -4.246656 0.000000
1.232229 0.068346 0.000000
2.164234 -9.095194 0.000000
-5.569960 2.235846 0.000000
4.023019 -5.757742 0.000000
-9.933245 1.160581 0.000000
2.108885 -0.652743 0.000000
0.699553 8.270795 0.000000
-3.960846 2.140809 0.000000
-6.835875 -3.156015 0.000000
-8.431423 1.639602 0.000000
-5.407628 7.889957 0.000000
-0.305336 -1.024482 0.000000
9.888460 7.332367 0.000000
-9.460336 -3.227539 0.000000
-9.897423 8.181718 0.000000
3.675197 -7.903235 0.000000
-2.836385 -8.419342 0.000000
2.364747 -9.308125 0.000000
2.326216 8.845976 0.000000
5.239823 5.404680 0.000000
0.422963 8.864879 0.000000
2.471965 -6.809517 0.000000
5.311035 -8.903515 0.000000
-3.712183 -8.365141 0.000000
-3.355545 -1.099913 0.000000
3.667428 3.345813 0.000000
2.812341 -9.956881 0.000000
1.641939 -9.767325 0.000000
-3.826496 -6.011878 0.000000
-7.585164 1.888820 0.000000
-8.327810 -3.273709 0.000000
-4.780171 -5.229906 0.000000
8.841660 5.996904 0.000000
-7.434046 -3.414757 0.000000
-4.234121 8.300642 0.000000
-3.450366 -8.999034 0.000000
-0.765595 4.683705 0.000000
3.339249 4.015895 0.000000
4.970595 -6.497215 0.000000
-8.148290 2.093314 0.000000
-3.486296 -0.775058 0.000000
-8.541090 3.381878 0.000000
5.590514 -4.979150 0.000000
-2.547911 7.160049 0.000000
5.605887 5.757931 0.000000
-9.209334 -3.736417 0.000000
-7.161552 9.215125 0.000000
-4.612802 -5.672723 0.000000
7.885102 -3.552042 0.000000
-1.213956 -3.228665 0.000000
0.850222 -0.462961 0.000000
6.761411 -8.521610 0.000000
-6.725778 -6.866725 0.000000
5.467095 -0.544857 0.000000
1.188669 1.585240 0.000000
9.494313 -4.247671 0.000000
4.107227 -1.137588 0.000000
-5.735604 -3.526458 0.000000
-8.937001 -5.197551 0.000000
-6.425047 -5.324843 0.000000
9.570961 8.308353 0.000000
0.917970 6.796261 0.000000
-2.112867 -4.810013 0.000000
8.434856 -7.543836 0.000000
-7.777046 -9.698597 0.000000
-3.508624 2.777612 0.000000
-2.226501 9.848180 0.000000
-8.153059 0.799121 0.000000
7.566069 -2.806796 0.000000
4.252691 -4.193206 0.000000
9.699211 4.432284 0.000000
2.662279 -0.215073 0.000000
1.673957 -1.789426 0.000000
8.798421 4.261604 0.000000
-0.920642 6.042979 0.000000
-0.092759 -3.187288 0.000000
7.553841 -9.835168 0.000000
-3.800324 3.125882 0.000000
-2.699489 1.114493 0.000000
-0.901723 -4.927281 0.000000
7.428636 -9.442397 0.000000
-3.020615 -9.999803 0.000000
6.910194 -2.748311 0.000000
-9.572002 1.949043 0.000000
-2.240594 -7.243696 0.000000
8.036726 -6.088800 0.000000
9.787968 -1.700523 0.000000
-7.237932 -1.290196 0.000000
5.410188 -3.118179 0.000000
8.585846 -4.838573 0.000000
-0.291391 -4.781500 0.000000
-2.693498 8.470409 0.000000
7.606385 1.098430 0.000000
6.505699 -4.838419 0.000000
8.844880 -2.387583 0.000000
5.252467 -4.956800 0.000000
0.026118 -0.578209 0.000000
-9.158920 -0.231296 0.000000
-8.437333 -9.325259 0.000000
-6.969691 -4.360185 0.000000
9.663261 2.444421 0.000000
8.691575 0.264555 0.000000
5.878249 8.735891 0.000000
-2.970501 -5.236919 0.000000
-5.845005 2.227522 0.000000
6.448939 -4.714327 0.000000
8.563202 -1.952004 0.000000
-4.135763 -1.762903 0.000000
-3.363920 7.002686 0.000000
-8.396266 -5.699229 0.000000
1.810961 0.383064 0.000000
6.372137 -2.636330 0.000000
1.860892 2.515817 0.000000
6.795847 -3.346199 0.000000
8.419947 -3.487124 0.000000
-3.328306 9.584139 0.000000
-4.664233 2.012172 0.000000
-6.644241 3.417733 0.000000
6.939946 -4.106767 0.000000
-5.208264 8.470636 0.000000
-8.385251 0.440139 0.000000
8.466746 -8.796590 0.000000
-4.981381 2.603220 0.000000
-0.635227 -0.593674 0.000000
-2.858732 -4.172837 0.000000
3.732972 6.928494 0.000000
4.687671 3.063177 0.000000
-4.203613 4.687442 0.000000
0.084280 -3.496685 0.000000
4.399841 2.924730 0.000000
-4.545272 0.073639 0.000000
5.538100 9.695907 0.000000
-6.295980 0.553253 0.000000
9.280169 -7.369531 0.000000
4.026760 -8.237483 0.000000
-1.224306 -6.159723 0.000000
-4.621292 -1.477383 0.000000
-6.104557 8.247447 0.000000
-9.924279 -5.815994 0.000000
-2.906789 -3.202886 0.000000
0.448874 6.837619 0.000000
-1.073047 -8.960231 0.000000
-7.770489 -5.954018 0.000000
4.504860 1.296061 0.000000
-5.830273 -2.650771 0.000000
-4.902027 9.105552 0.000000
-3.010502 -5.238534 0.000000
5.029719 1.847980 0.000000
-0.102902 0.850130 0.000000
4.534689 -7.362933 0.000000
-3.757459 -9.053941 0.000000
-6.379676 5.801587 0.000000
7.467902 2.324166 0.000000
-5.590488 1.321612 0.000000
7.908753 -9.661378 0.000000
-8.600136 -0.904226 0.000000
6.430472 -6.651780 0.000000
-5.945533 -7.326441 0.000000
-4.317624 7.702007 0.000000
-8.296885 8.485164 0.000000
6.603700 2.914723 0.000000
1.750397 0.856617 0.000000
-4.719151 -3.930568 0.000000
5.320445 -3.578604 0.000000
-7.612835 -9.590665 0.000000
0.425953 4.406025 0.000000
6.495901 -3.064017 0.000000
3.060621 4.181268 0.000000
-4.800363 5.431851 0.000000
-7.978719 -3.114620 0.000000
-9.088516 -2.674035 0.000000
4.074294 7.433464 0.000000
-8.629699 7.396373 0.000000
6.467929 8.086907 0.000000
-9.613217 2.381215 0.000000
-4.597298 -9.344706 0.000000
-3.981555 7.313452 0.000000
4.133186 -3.714457 0.000000
9.552906 3.817412 0.000000
-3.374363 -4.460094 0.000000
5.485287 6.447648 0.000000
-6.905701 -8.318832 0.000000
-4.031752 8.076093 0.000000
-9.152108 -8.254675 0.000000
2.524783 7.478828 0.000000
8.056779 0.000000 4.570386
-8.590371 0.000000 3.610120
6.676313 0.000000 2.463431
9.255419 0.000000 -6.719929
-4.038857 0.000000 4.643245
-7.455691 0.000000 4.882369
2.802737 0.000000 -5.043321
9.060789 0.000000 4.181387
-0.924328 0.000000 8.791696
0.595318 0.000000 3.393982
2.036543 0.000000 5.848835
-9.989761 0.000000 -5.968097
5.023766 0.000000 2.302947
-9.796072 0.000000 7.066993
8.407332 0.000000 -1.087800
4.362713 0.000000 5.898302
3.488496 0.000000 -5.683431
4.709448 0.000000 8.235052
-2.602728 0.000000 4.016124
6.532775 0.000000 1.651945
4.828525 0.000000 -5.243111
-9.579844 0.000000 -0.675237
2.999765 0.000000 -9.699431
-0.155242 0.000000 3.663967
-2.145407 0.000000 -8.280140
-8.973214 0.000000 -2.053559
-3.628603 0.000000 -2.453224
4.722931 0.000000 -9.498195
-7.525449 0.000000 -2.188570
8.500490 0.000000 5.530489
5.494960 0.000000 5.716411
2.814514 0.000000 1.051307
3.268899 0.000000 3.281230
0.670056 0.000000 -4.085419
1.198382 0.000000 2.416918
5.843566 0.000000 7.417003
-7.649685 0.000000 -1.335773
-7.106569 0.000000 3.281572
-6.317715 0.000000 -8.324218
-8.458173 0.000000 -5.394273
-1.417396 0.000000 -2.575601
-2.098854 0.000000 9.589382
-5.266430 0.000000 -3.654929
-9.770548 0.000000 6.522574
-0.787505 0.000000 -9.245272
-4.050275 0.000000 0.479710
9.688971 0.000000 6.965438
1.867593 0.000000 -7.996453
3.450068 0.000000 7.389660
-3.788717 0.000000 -8.362000
-6.627542 0.000000 7.243538
9.588906 0.000000 -8.686915
-2.178337 0.000000 5.341768
4.737645 0.000000 2.103332
8.558094 0.000000 -1.067259
4.068123 0.000000 -3.890229
0.030026 0.000000 -3.064499
5.836003 0.000000 3.487921
8.617040 0.000000 2.043852
7.398689 0.000000 -5.915763
-8.903200 0.000000 -8.736783
2.315102 0.000000 6.741537
6.170343 0.000000 8.560852
-0.873364 0.000000 -4.673392
-2.259403 0.000000 -3.879400
2.260071 0.000000 -4.434848
6.279382 0.000000 -8.208561
4.582758 0.000000 -8.395889
9.826776 0.000000 -3.469998
-6.483294 0.000000 -6.489800
1.180518 0.000000 4.150068
0.340775 0.000000 2.775189
-5.287112 0.000000 7.351343
-2.630439 0.000000 -1.885721
-2.057628 0.000000 6.764400
3.288679 0.000000 -2.773922
4.090955 0.000000 -4.443601
3.643354 0.000000 9.721244
2.973565 0.000000 0.662005
-3.343736 0.000000 5.536549
2.918726 0.000000 6.343339
-0.189381 0.000000 -0.924764
-9.098796 0.000000 8.585206
-0.554565 0.000000 8.496884
-1.150202 0.000000 -5.973868
3.348903 0.000000 -7.964517
-2.695777 0.000000 -5.353567
5.256842 0.000000 -9.642036
-5.637845 0.000000 7.233922
1.046444 0.000000 8.143223
7.122963 0.000000 -5.722151
2.981575 0.000000 -2.324892
-9.755371 0.000000 4.336011
6.864718 0.000000 3.366890
6.667112 0.000000 8.095657
6.948965 0.000000 -4.826362
-1.241370 0.000000 7.868065
3.206679 0.000000 6.102203
-4.929369 0.000000 -1.671813
-7.735364 0.000000 -8.426670
6.393693 0.000000 -4.347068
-8.674610 0.000000 2.156956
0.521795 0.000000 5.524504
5.322531 0.000000 -4.116507
4.791067 0.000000 -5.081028
1.860848 0.000000 1.036651
-3.815151 0.000000 -2.171258
-6.773443 0.000000 6.473010
-4.253385 0.000000 -0.196064
-6.259304 0.000000 -0.815104
-1.095627 0.000000 -9.834532
1.953951 0.000000 -9.563392
-4.725811 0.000000 9.322970
-8.090078 0.000000 6.094025
-9.523865 0.000000 -0.808138
1.727535 0.000000 8.524360
-1.499217 0.000000 -5.513313
-4.250723 0.000000 1.624359
0.132080 0.000000 -8.356453
2.993728 0.000000 -7.623732
-2.326009 0.000000 1.454382
-1.567985 0.000000 -3.038447
-9.789326 0.000000 5.832227
8.568591 0.000000 7.120276
9.500406 0.000000 -5.876841
-8.130011 0.000000 5.576395
-0.117864 0.000000 4.473643
-2.568715 0.000000 0.425607
8.242299 0.000000 -9.582438
-3.436515 0.000000 7.111231
-7.214807 0.000000 3.798678
-8.710489 0.000000 -6.912938
-9.212511 0.000000 7.504147
-8.725313 0.000000 7.917187
-9.431621 0.000000 6.081946
5.585199 0.000000 -4.487671
5.342827 0.000000 7.261820
-0.360580 0.000000 -4.350815
7.220294 0.000000 4.680337
-1.441448 0.000000 -4.107848
-7.503351 0.000000 -1.054444
-0.483564 0.000000 -7.636571
-9.571183 0.000000 -2.065515
-8.741626 0.000000 2.167181
-8.145097 0.000000 8.671914
-7.996339 0.000000 6.498346
3.616653 0.000000 1.406716
7.535729 0.000000 -5.098227
-6.410527 0.000000 -1.492470
-2.966550 0.000000 2.725549
-3.585574 0.000000 6.834600
1.027995 0.000000 2.194892
-6.155067 0.000000 4.250232
-5.354131 0.000000 -5.164578
1.617144 0.000000 0.122204
-3.743323 0.000000 3.199245
4.338373 0.000000 -5.958382
4.469696 0.000000 1.697987
7.903600 0.000000 -3.696708
-2.418659 0.000000 -4.533154
8.390559 0.000000 1.782156
4.614859 0.000000 7.003717
-7.584980 0.000000 -7.251444
9.256990 0.000000 -7.255090
1.324501 0.000000 5.871008
8.138041 0.000000 -2.858480
0.002361 0.000000 2.270214
0.337350 0.000000 -7.801785
-8.088689 0.000000 3.060118
1.989887 0.000000 1.266263
1.094311 0.000000 -2.346986
-7.214191 0.000000 -4.925120
1.534876 0.000000 9.850917
2.355893 0.000000 6.573906
-1.979391 0.000000 -6.419279
8.958470 0.000000 -0.911726
-1.144910 0.000000 -6.225598
-9.488135 0.000000 -2.378510
-5.011431 0.000000 -9.210435
-7.679672 0.000000 -6.134728
7.349130 0.000000 -0.326147
2.207509 0.000000 -6.590399
-3.105881 0.000000 -0.310223
-4.524064 0.000000 7.618529
-8.197208 0.000000 3.999405
4.132914 0.000000 4.604700
-6.211379 0.000000 -4.314108
-3.912613 0.000000 0.128930
-4.086536 0.000000 6.572535
4.260147 0.000000 8.506307
9.697520 0.000000 -8.448221
6.899223 0.000000 4.337194
3.096922 0.000000 8.226263
-4.749716 0.000000 5.915581
-1.441321 0.000000 -0.619566
9.264491 0.000000 2.731717
5.772105 0.000000 -6.345294
-4.595529 0.000000 -4.678283
9.230835 0.000000 -5.886295
6.811357 0.000000 5.323480
4.917611 0.000000 -1.119958
5.512712 0.000000 2.245909
-5.662071 0.000000 2.792094
1.940862 0.000000 -9.540238
-5.827132 0.000000 -7.964520
-9.906597 0.000000 -4.574235
-9.921414 0.000000 -9.373641
6.286518 0.000000 -9.488621
4.061681 0.000000 1.089722
1.417409 0.000000 6.748388
7.246761 0.000000 5.472899
1.745139 0.000000 -5.787561
-1.781526 0.000000 -4.657231
3.253284 0.000000 -4.803813
-2.348693 0.000000 7.178171
9.914581 0.000000 -4.510213
-4.094094 0.000000 -8.010347
-6.015665 0.000000 5.042594
-0.889669 0.000000 -4.600943
-9.953237 0.000000 5.014736
-6.165309 0.000000 -9.698677
-6.415412 0.000000 -7.783100
-4.024926 0.000000 -7.420649
-4.468566 0.000000 0.120905
-5.568835 0.000000 -3.120416
7.074197 0.000000 6.636802
-7.325237 0.000000 5.482529
2.281753 0.000000 5.065161
3.045001 0.000000 -7.355432
7.257493 0.000000 -4.776166
-6.592320 0.000000 1.643865
0.852718 0.000000 8.800222
2.387509 0.000000 -1.840000
-7.424961 0.000000 9.285406
4.040835 0.000000 -9.636556
-3.175295 0.000000 -0.324772
4.311191 0.000000 -2.030054
-6.159021 0.000000 -7.249896
1.793786 0.000000 -2.775600
-5.775648 0.000000 -5.516581
7.603245 0.000000 -4.311915
0.480419 0.000000 6.931308
5.806788 0.000000 -4.935390
0.565445 0.000000 7.181337
7.541253 0.000000 9.215685
-6.700860 0.000000 -9.846615
-1.571629 0.000000 -9.454664
-5.684403 0.000000 -8.073218
-8.833452 0.000000 -8.944171
-1.324824 0.000000 -7.918973
-6.095231 0.000000 7.875774
-1.131183 0.000000 -0.955150
8.568941 0.000000 -9.215104
-3.791367 0.000000 -8.092310
-3.756144 0.000000 -2.401918
-5.351437 0.000000 -1.191097
7.003954 0.000000 -5.893371
-1.291864 0.000000 -5.655556
1.008773 0.000000 7.146300
-9.159869 0.000000 6.348722
-9.778264 0.000000 -9.356992
-3.583333 0.000000 2.510649
-3.692662 0.000000 -1.208657
-5.150277 0.000000 7.873393
8.483272 0.000000 -5.564753
0.146368 0.000000 1.177493
5.420644 0.000000 9.869882
-1.632044 0.000000 3.279759
-1.860167 0.000000 1.952611
6.630439 0.000000 -9.162406
-7.544062 0.000000 9.992733
-4.329310 0.000000 7.957129
-4.750066 0.000000 -0.856891
-1.845508 0.000000 2.701147
4.276717 0.000000 4.876790
-9.823685 0.000000 3.783302
-1.964843 0.000000 8.780195
-0.417115 0.000000 -8.199209
-0.501652 0.000000 0.536077
-6.494632 0.000000 -7.701213
-3.456045 0.000000 -6.019004
-9.348243 0.000000 -9.690139
5.304830 0.000000 -6.466431
2.653926 0.000000 7.807837
-1.945503 0.000000 -0.667406
-0.528638 0.000000 0.758192
8.029923 0.000000 9.701555
2.269042 0.000000 -6.657796
-6.783489 0.000000 7.071711
3.111075 0.000000 4.827114
-0.854100 0.000000 -2.438711
2.749718 0.000000 6.427893
8.058933 0.000000 -3.944364
9.331178 0.000000 0.886827
-1.711531 0.000000 -1.761029
2.015268 0.000000 1.662392
-1.678729 0.000000 -3.286617
-3.397662 0.000000 9.722714
9.680637 0.000000 -7.778581
3.396986 0.000000 0.806729
-1.289729 0.000000 9.829942
3.793254 0.000000 -4.829909
0.410596 0.000000 0.465151
-2.210144 0.000000 7.741888
-0.893804 0.000000 -7.841113
-4.793546 0.000000 2.254179
-9.093819 0.000000 -5.787721
5.677011 0.000000 -9.228612
8.275098 0.000000 -5.618374
-4.453951 0.000000 1.257874
-2.170054 0.000000 -4.067359
-7.053958 0.000000 9.333726
1.181495 0.000000 -9.747537
-1.141042 0.000000 3.137014
-0.892008 0.000000 7.022835
-7.226225 0.000000 4.876794
-5.606809 0.000000 -2.515717
4.439128 0.000000 -5.017824
-6.583002 0.000000 -7.824183
-9.307412 0.000000 -5.883257
-1.086276 0.000000 -0.861129
9.456983 0.000000 -6.152907
-2.117959 0.000000 2.980209
-1.435721 0.000000 -7.459448
-5.498954 0.000000 -5.602615
8.823423 0.000000 9.523615
-1.622749 0.000000 -0.391533
1.880265 0.000000 -5.534749
6.466661 0.000000 -1.013188
5.204902 0.000000 -6.497161
4.320177 0.000000 7.635970
7.599819 0.000000 1.611220
8.038240 0.000000 -8.714382
6.842057 0.000000 1.824938
2.368970 0.000000 8.539231
-6.983512 0.000000 -1.215092
-7.286292 0.000000 -0.557792
-3.349864 0.000000 -1.277741
0.984522 0.000000 -7.993095
-3.083925 0.000000 -9.504254
2.711797 0.000000 9.328390
-0.298342 0.000000 1.685487
-1.679139 0.000000 3.436245
-6.554489 0.000000 -7.234022
4.385379 0.000000 2.200381
4.150487 0.000000 1.207618
-6.816467 0.000000 -2.215440
4.234936 0.000000 -4.101119
4.643508 0.000000 3.891706
-5.750227 0.000000 7.378482
-6.193912 0.000000 3.447092
0.448423 0.000000 7.432703
1.450388 0.000000 8.224724
-1.105066 0.000000 -4.490125
-5.134992 0.000000 7.125356
-4.383888 0.000000 -1.700902
9.669944 0.000000 -7.683176
7.807038 0.000000 -6.583189
9.820347 0.000000 -4.736714
5.681663 0.000000 6.871212
-9.190086 0.000000 5.635122
9.725833 0.000000 8.514572
3.411430 0.000000 4.264046
-2.409432 0.000000 -8.835004
-0.132030 0.000000 2.988493
-0.986193 0.000000 -7.852875
2.419391 0.000000 -4.848829
-2.911708 0.000000 -8.949135
-9.288986 0.000000 2.327967
-0.595208 0.000000 2.052035
5.325956 0.000000 6.758755
-8.890852 0.000000 -1.442067
5.207584 0.000000 4.601301
-5.959794 0.000000 -9.335896
-5.054708 0.000000 -3.931622
1.998449 0.000000 -8.535328
-8.117595 0.000000 -3.600151
9.378381 0.000000 6.011820
-4.686398 0.000000 -3.542083
2.504419 0.000000 2.638339
-5.681417 0.000000 -3.964695
0.842098 0.000000 -4.586301
-2.809654 0.000000 -9.716844
-3.919952 0.000000 -9.537249
-8.527045 0.000000 -0.846482
4.827959 0.000000 -0.516188
-3.481548 0.000000 -2.230157
-4.132394 0.000000 -3.874092
-1.463592 0.000000 -9.866553
-3.395799 0.000000 1.181821
9.702308 0.000000 -3.445297
8.996978 0.000000 4.845137
-9.841982 0.000000 -8.482435
-0.674032 0.000000 4.879939
-9.650705 0.000000 2.229335
-3.460503 0.000000 5.970863
-1.235401 0.000000 -2.954401
1.846442 0.000000 9.240989
2.291377 0.000000 -0.676568
-3.180141 0.000000 2.604620
-0.921754 0.000000 -5.817723
7.511947 0.000000 6.447712
6.393589 0.000000 8.352118
0.087739 0.000000 -7.899994
8.009853 0.000000 -9.271714
2.248651 0.000000 -2.158329
-4.476520 0.000000 -7.502092
6.181328 0.000000 4.570828
-0.642364 0.000000 -5.667042
-5.271495 0.000000 -8.318590
8.605386 0.000000 0.684502
-1.546972 0.000000 1.673791
1.204986 0.000000 1.913968
-4.400554 0.000000 8.201249
-6.615403 0.000000 -2.182785
0.669047 0.000000 1.695314
-1.282582 0.000000 1.654926
-3.184144 0.000000 4.632892
9.965408 0.000000 -5.942237
-9.937297 0.000000 1.017970
-2.521281 0.000000 -0.652418
-8.385449 0.000000 4.876304
-9.522974 0.000000 4.403889
-7.140310 0.000000 5.726692
-7.795274 0.000000 -1.830828
5.694655 0.000000 -1.578975
-2.829764 0.000000 -7.149658
-0.783607 0.000000 7.509535
7.910191 0.000000 -8.772902
-0.042739 0.000000 4.777931
4.748865 0.000000 3.199373
-6.861263 0.000000 -6.918900
-0.881786 0.000000 2.206696
-6.862320 0.000000 -7.342617
-9.301682 0.000000 6.939010
9.207016 0.000000 -6.329981
-0.084089 0.000000 0.673264
2.150274 0.000000 8.152355
1.154974 0.000000 -0.926671
2.485529 0.000000 1.146924
6.232911 0.000000 4.249429
-0.008461 0.000000 -6.107104
5.996387 0.000000 8.972364
3.101762 0.000000 2.205482
7.893406 0.000000 8.443541
-9.727263 0.000000 9.858051
-8.953658 0.000000 1.512754
9.098082 0.000000 8.107851
3.238890 0.000000 5.372441
1.277485 0.000000 -5.841041
-7.183664 0.000000 -3.751033
-8.050212 0.000000 -9.538143
-5.501045 0.000000 -4.797748
-0.564955 0.000000 9.871437
2.486386 0.000000 -8.680863
4.845673 0.000000 -0.197099
8.659019 0.000000 2.195699
8.859757 0.000000 0.561467
4.260446 0.000000 -0.391926
-9.076570 0.000000 -2.318276
-8.177554 0.000000 8.172159
-6.519177 0.000000 -1.229999
-7.638829 0.000000 8.526697
-4.266993 0.000000 -3.150421
3.551917 0.000000 -7.027859
7.043045 0.000000 -2.468832
9.576105 0.000000 5.365274
-9.127596 0.000000 -1.861572
-0.606936 0.000000 -3.612589
4.633129 0.000000 4.558475
-3.735103 0.000000 -5.649739
7.686193 0.000000 -6.079302
0.143993 0.000000 7.603533
0.298395 0.000000 8.142696
7.437074 0.000000 6.351875
9.173550 0.000000 7.600061
4.220436 0.000000 -9.433883
6.502870 0.000000 0.131109
-4.560699 0.000000 -0.463487
2.469879 0.000000 6.283933
6.700612 0.000000 -3.368458
0.009118 0.000000 9.210169
-2.684912 0.000000 -3.593790
2.751503 0.000000 -6.130377
8.784636 0.000000 -3.057807
0.789565 0.000000 3.862424
0.221171 0.000000 9.016355
4.718087 0.000000 1.161840
6.268602 0.000000 4.283376
-9.524494 0.000000 -9.375478
3.304809 0.000000 -3.038150
4.089088 0.000000 8.853371
9.165241 0.000000 -0.342343
-9.260434 0.000000 1.617087
-5.194212 0.000000 4.246480
-5.681634 0.000000 -1.455747
3.831777 0.000000 4.674811
8.238398 0.000000 9.317111
-9.385119 0.000000 8.347228
-3.197828 0.000000 -4.312943
6.065120 0.000000 -4.027347
-7.830938 0.000000 6.284233
2.981668 0.000000 7.119657
-2.068647 0.000000 -7.830943
-9.075912 0.000000 7.080112
-3.432908 0.000000 -0.501062
-1.603529 0.000000 -2.456355
8.620374 0.000000 1.328204
-6.336947 0.000000 2.270193
4.051833 0.000000 8.093735
6.969949 0.000000 2.315690
-8.306433 0.000000 -0.847730
-4.976214 0.000000 1.736400
-4.105785 0.000000 0.576268
-7.317275 0.000000 9.621968
-3.355593 0.000000 -5.660136
0.464014 0.000000 3.478469
6.852029 0.000000 0.876882
-8.373730 0.000000 4.122810
-7.797515 0.000000 5.669549
8.555115 0.000000 -8.368242
-7.649283 0.000000 3.496450
-1.358262 0.000000 6.365199
9.367150 0.000000 2.668663
-8.145298 0.000000 -5.141898
4.596872 0.000000 0.238808
5.304698 0.000000 -4.458403
-1.616062 0.000000 -0.760867
-0.876027 0.000000 1.941843
8.964174 0.000000 3.203481
-2.937371 0.000000 -3.089330
6.410254 0.000000 -9.178005
-6.860634 0.000000 -6.162198
-5.973064 0.000000 -4.393278
6.138278 0.000000 -8.286520
-7.292788 0.000000 3.084940
-4.886037 0.000000 -6.943431
-9.129456 0.000000 -4.433985
-1.115525 0.000000 -3.952428
7.147438 0.000000 2.559632
-8.662362 0.000000 0.332387
9.695846 0.000000 -2.779503
0.702420 0.000000 1.027620
-4.092232 0.000000 1.487741
9.126520 0.000000 7.173502
-5.146006 0.000000 0.413937
-9.980398 0.000000 2.797909
-5.847987 0.000000 8.972654
-2.121195 0.000000 -9.560273
-9.794824 0.000000 -3.985325
-0.961200 0.000000 8.567482
6.662961 0.000000 -2.394455
2.720983 0.000000 -9.110381
9.573789 0.000000 -9.921831
0.238822 0.000000 4.886629
7.288482 0.000000 -7.145788
-9.396528 0.000000 6.100249
2.181374 0.000000 7.511817
5.492656 0.000000 -9.342977
-1.467101 0.000000 -7.653117
5.283892 0.000000 3.761836
7.240985 0.000000 0.985743
7.811517 0.000000 -3.499301
-0.155101 0.000000 -7.160500
-6.111157 0.000000 -8.116094
5.812961 0.000000 7.797976
-4.494161 0.000000 -8.074899
-0.727977 0.000000 -5.180114
-6.658722 0.000000 -0.372247
0.943081 0.000000 7.051864
0.342610 0.000000 -6.116435
-7.068857 0.000000 -2.127308
-1.330431 0.000000 -4.700487
9.184971 0.000000 6.429914
6.042068 0.000000 -9.499757
-0.691553 0.000000 -3.045285
5.132530 0.000000 3.205701
5.937500 0.000000 2.655508
-8.246802 0.000000 7.292550
-7.267422 0.000000 -1.298884
-7.512349 0.000000 -3.899848
0.563243 0.000000 4.289421
-5.353158 0.000000 3.056126
1.292768 0.000000 9.330479
-8.931205 0.000000 -1.245431
4.034806 0.000000 -0.067590
-2.845862 0.000000 -7.540007
-5.271789 0.000000 -1.176117
-8.821431 0.000000 -0.604523
9.354082 0.000000 -8.147489
6.188925 0.000000 2.119242
-6.454166 0.000000 6.879317
-1.572382 0.000000 -9.538734
4.521902 0.000000 -6.736739
2.662834 0.000000 0.032860
-7.237807 0.000000 -9.661065
-6.828409 0.000000 -7.217879
2.593176 0.000000 2.709813
-9.786421 0.000000 1.636903
6.621800 0.000000 -4.450313
5.533074 0.000000 -6.660544
-7.161308 0.000000 -4.993537
-0.051284 0.000000 7.424711
-2.070554 0.000000 1.887024
-4.778580 0.000000 -6.055290
-1.135701 0.000000 0.416374
5.307311 0.000000 -7.117989
6.455711 0.000000 -9.991002
8.224116 0.000000 -0.803441
2.366345 0.000000 -1.305091
-0.264188 0.000000 -7.560795
-9.368819 0.000000 8.647026
-9.710921 0.000000 4.914202
-4.530054 0.000000 9.953736
-1.488641 0.000000 -0.171969
-1.295392 0.000000 -5.366945
-6.897944 0.000000 -8.573289
8.907585 0.000000 5.217154
2.871755 0.000000 -8.923674
8.688668 0.000000 8.175155
9.219286 0.000000 -3.310255
5.752470 0.000000 1.108934
8.382523 0.000000 6.741663
8.974051 0.000000 -3.813300
-4.306928 0.000000 0.732860
-4.223584 0.000000 -3.922553
-4.560909 0.000000 7.216301
8.797135 0.000000 4.069054
5.724543 0.000000 4.701578
-9.094111 0.000000 5.698698
-4.852777 0.000000 -7.923745
-9.661306 0.000000 3.129806
-0.744325 0.000000 4.281841
-1.684919 0.000000 9.939134
0.915776 0.000000 -0.334249
-8.975449 0.000000 -4.207343
1.596734 0.000000 -9.492114
7.050690 0.000000 -4.204088
-5.493842 0.000000 0.498591
-3.995282 0.000000 9.090663
4.728790 0.000000 8.305182
5.634158 0.000000 5.456333
9.712209 0.000000 -7.712066
6.412061 0.000000 -0.706740
8.549388 0.000000 -0.689711
-7.735011 0.000000 -4.031107
7.567926 0.000000 -5.826873
-3.293318 0.000000 -0.894293
5.060206 0.000000 1.748837
-2.877305 0.000000 -6.027033
-7.530147 0.000000 -0.516660
0.187745 0.000000 9.127293
-8.416279 0.000000 5.048260
-1.558051 0.000000 -3.303532
-2.865392 0.000000 -3.310889
-0.585542 0.000000 -2.181157
6.891391 0.000000 6.993311
-4.972658 0.000000 2.968852
-7.750213 0.000000 7.692261
-8.477281 0.000000 8.274180
1.013701 0.000000 -7.393068
1.049297 0.000000 4.608508
3.787492 0.000000 3.597512
3.715926 0.000000 0.052260
4.829258 0.000000 -4.534117
4.998996 0.000000 6.110518
9.520024 0.000000 -2.493104
-4.947652 0.000000 -4.170179
-9.077289 0.000000 -7.858943
-8.434545 0.000000 1.443076
-8.556584 0.000000 5.597294
-4.156819 0.000000 3.888566
7.545731 0.000000 -4.342294
4.113296 0.000000 1.685718
3.669794 0.000000 2.427746
2.977893 0.000000 9.458118
5.643948 0.000000 5.810761
-1.688045 0.000000 1.996495
4.130170 0.000000 -5.265231
2.871858 0.000000 -0.909660
-3.381876 0.000000 3.341110
-2.955544 0.000000 8.078585
2.267643 0.000000 -4.000171
8.967724 0.000000 -3.395112
4.144342 0.000000 -6.931376
2.195845 0.000000 6.423586
6.870510 0.000000 -6.687810
4.390483 0.000000 3.591744
9.544365 0.000000 -3.716752
-7.561319 0.000000 -8.806950
3.958795 0.000000 5.876723
5.726903 0.000000 -0.285894
9.569095 0.000000 -4.612834
-0.529840 0.000000 -5.957519
4.325535 0.000000 3.739773
9.541788 0.000000 -7.980614
-0.844248 0.000000 -5.504641
-6.129022 0.000000 7.167486
5.573446 0.000000 7.320755
-0.780279 0.000000 3.913885
4.948482 0.000000 -1.540641
8.757449 0.000000 -4.498452
-0.295403 0.000000 -0.944947
1.842286 0.000000 6.430917
8.563776 0.000000 -2.386449
-4.253365 0.000000 2.831380
2.993585 0.000000 -5.113532
-4.983615 0.000000 6.708042
4.499767 0.000000 7.724849
0.300500 0.000000 2.235325
6.327392 0.000000 2.274925
-4.793567 0.000000 5.559184
-1.131984 0.000000 -7.312035
-0.437045 0.000000 1.037732
-9.056131 0.000000 2.711617
-1.646299 0.000000 -2.027073
-9.789292 0.000000 -1.817397
-5.164517 0.000000 1.853446
3.284931 0.000000 1.805449
-2.756467 0.000000 -3.823933
-6.994396 0.000000 7.877648
2.964599 0.000000 2.542916
1.179112 0.000000 -1.673655
2.689145 0.000000 -4.909242
6.971388 0.000000 -9.636899
-1.875332 0.000000 7.018440
-2.248478 0.000000 -7.606798
7.667596 0.000000 6.087662
9.531634 0.000000 -7.013738
-1.439634 0.000000 0.538936
4.553587 0.000000 6.792689
4.832112 0.000000 -2.118042
9.662738 0.000000 -6.432792
-9.913972 0.000000 3.296554
4.113871 0.000000 -5.632625
-5.253258 0.000000 5.361506
-6.434255 0.000000 8.146815
-8.142770 0.000000 5.509702
-8.638507 0.000000 -3.103233
8.023400 0.000000 -5.170412
2.846174 0.000000 -8.727259
-1.296492 0.000000 5.717617
3.891734 0.000000 3.554461
9.027997 0.000000 -6.876259
-9.232308 0.000000 6.141870
1.637905 0.000000 -0.634466
8.004240 0.000000 -0.248041
1.250181 0.000000 -9.856301
-3.749793 0.000000 -7.866687
-7.431929 0.000000 6.651512
-6.797994 0.000000 -7.097029
-2.456165 0.000000 -5.087098
5.003440 0.000000 6.263429
-4.335441 0.000000 -8.895948
3.221853 0.000000 6.835046
-4.888844 0.000000 -9.387355
2.090951 0.000000 7.597880
1.914417 0.000000 -0.029480
-1.044292 0.000000 -3.304311
-5.464614 0.000000 -7.780741
3.824785 0.000000 0.384057
3.424660 0.000000 -3.665450
-0.722712 0.000000 1.793437
1.531540 0.000000 1.739580
-2.222962 0.000000 8.605441
-9.059784 0.000000 7.581081
-6.259980 0.000000 -6.476654
5.900508 0.000000 1.984709
-8.179543 0.000000 -1.725487
9.886015 0.000000 7.625470
-5.291329 0.000000 -6.639261
5.014329 0.000000 0.312389
4.195243 0.000000 5.174012
5.547789 0.000000 -1.483324
-2.499930 0.000000 1.479679
5.410838 0.000000 1.460663
-1.811532 0.000000 0.015002
-4.758674 0.000000 2.464950
2.470026 0.000000 -0.209496
-9.595463 0.000000 4.849814
-2.437574 0.000000 -2.136426
0.534282 0.000000 2.190676
-0.992766 0.000000 7.805381
8.201086 0.000000 -1.572692
8.754604 0.000000 8.436466
-9.950600 0.000000 -4.086172
-0.406185 0.000000 -1.061939
-0.304436 0.000000 6.179513
-5.539917 0.000000 -8.485678
1.009050 0.000000 -8.757725
-0.223217 0.000000 4.009125
-4.212691 0.000000 7.995468
9.727321 0.000000 8.226673
-6.454794 0.000000 -1.643612
-3.693948 0.000000 -6.034767
9.378085 0.000000 2.636576
5.609932 0.000000 -9.893117
6.538944 0.000000 3.347179
-1.636253 0.000000 -4.495796
-7.353838 0.000000 9.015544
5.115596 0.000000 -9.816819
7.663911 0.000000 5.012543
-6.100727 0.000000 -4.970148
9.157237 0.000000 -7.541651
9.303735 0.000000 5.885979
1.863087 0.000000 -0.969305
0.220830 0.000000 6.065181
-2.787675 0.000000 0.655691
-7.784208 0.000000 9.582587
-1.314701 0.000000 2.180308
8.320070 0.000000 -4.490007
-8.350840 0.000000 7.030486
-4.787513 0.000000 -0.600188
-3.765326 0.000000 -9.753691
5.122554 0.000000 -0.874387
-4.680552 0.000000 1.663912
4.493306 0.000000 -5.961731
-9.342750 0.000000 -5.032643
0.934669 0.000000 -7.666212
-0.432887 0.000000 1.899031
-8.401900 0.000000 -8.468387
-2.793786 0.000000 7.568320
7.249179 0.000000 0.532258
6.581989 0.000000 4.908545
4.604143 0.000000 4.219832
7.532071 0.000000 4.480452
-0.868115 0.000000 -2.458715
-9.288841 0.000000 -8.783166
-5.102587 0.000000 -1.464341
-7.657822 0.000000 5.057166
-4.555646 0.000000 7.710197
-5.888492 0.000000 -2.287547
-5.581220 0.000000 4.951452
8.106834 0.000000 3.009875
0.751138 0.000000 -5.039988
-4.026957 0.000000 -4.040594
-1.022194 0.000000 -4.465331
4.077312 0.000000 -5.817551
1.267082 0.000000 -1.833770
7.575669 0.000000 -5.438130
1.815535 0.000000 -9.087541
-2.494974 0.000000 0.064129
7.387533 0.000000 6.898467
2.728305 0.000000 -6.884071
7.074403 0.000000 3.309959
-8.747978 0.000000 4.005087
-6.547347 0.000000 3.004003
-7.304929 0.000000 1.772312
-1.510556 0.000000 7.725074
-9.860054 0.000000 -1.456935
4.678505 0.000000 0.434204
4.118733 0.000000 -6.274362
-5.332350 0.000000 0.378559
-2.581090 0.000000 -7.871840
0.765455 0.000000 5.170214
-3.124973 0.000000 0.078204
3.597402 0.000000 0.301657
3.383134 0.000000 -2.617625
1.734917 0.000000 -5.721321
-0.049347 0.000000 3.673103
9.400241 0.000000 -2.045045
8.738613 0.000000 -9.898504
8.863025 0.000000 5.640425
5.177607 0.000000 -4.557763
5.825789 0.000000 -9.605442
3.694098 0.000000 3.573057
-2.167854 0.000000 -0.260667
5.459773 0.000000 -2.968849
-8.236429 0.000000 9.407405
-8.471121 0.000000 1.938345
4.115149 0.000000 6.264846
3.862717 0.000000 9.140664
0.476985 0.000000 -0.939458
1.101339 0.000000 7.838420
-6.217072 0.000000 2.013541
-2.248502 0.000000 -3.590833
4.070677 0.000000 -5.174026
-0.547755 0.000000 -6.929923
5.644798 0.000000 4.278513
3.061458 0.000000 2.153416
4.054600 0.000000 2.872076
-0.333676 0.000000 7.800344
8.451470 0.000000 9.633535
3.640924 0.000000 9.786453
4.426038 0.000000 -3.204190
1.876015 0.000000 7.610348
-2.059772 0.000000 -8.231951
0.379181 0.000000 7.875016
-6.889177 0.000000 3.407364
4.631289 0.000000 2.254704
7.898368 0.000000 0.058569
-8.616312 0.000000 1.285068
-6.050824 0.000000 3.649551
2.341422 0.000000 3.059517
-4.606359 0.000000 1.156001
6.267858 0.000000 7.019616
9.697398 0.000000 7.437709
2.341192 0.000000 4.902496
9.681911 0.000000 -8.519394
-1.674650 0.000000 -0.916034
-7.947528 0.000000 3.559337
-0.174170 0.000000 3.591850
-5.042942 0.000000 9.850139
0.580064 0.000000 -6.206917
-8.388779 0.000000 8.758630
-9.418443 0.000000 2.741622
2.092061 0.000000 8.887163
7.862940 0.000000 8.751048
5.422624 0.000000 6.680065
8.803050 0.000000 0.547137
7.109128 0.000000 0.400213
2.441503 0.000000 6.506277
-6.897081 0.000000 2.312327
-8.652125 0.000000 -1.487489
-0.330872 0.000000 -9.735112
-4.722862 0.000000 1.555788
-7.344273 0.000000 5.390458
8.757515 0.000000 2.432270
-8.126071 0.000000 3.670445
7.162261 0.000000 -7.042182
-0.469600 0.000000 8.618324
-7.399480 0.000000 4.625292
0.680194 0.000000 1.800614
-4.713782 0.000000 1.771665
0.602932 0.000000 2.795304
3.499845 0.000000 4.940329
6.493346 0.000000 5.189511
-1.105997 0.000000 -6.164114
-3.885357 0.000000 8.010137
6.585839 0.000000 -9.031684
-3.806495 0.000000 -1.317498
-8.363622 0.000000 5.935628
-9.021271 0.000000 0.299440
-9.812752 0.000000 -7.376420
8.495162 0.000000 8.086701
-3.201971 0.000000 0.599088
-2.881310 0.000000 -3.672002
-6.062355 0.000000 7.775862
-0.398108 0.000000 -0.733358
6.173526 0.000000 -4.309942
4.411046 0.000000 1.866324
-5.910140 0.000000 8.205878
-2.073781 0.000000 -6.294702
6.574743 0.000000 1.860716
2.116698 0.000000 6.732191
-0.029514 0.000000 -6.527687
-2.395772 0.000000 8.920882
3.948971 0.000000 -9.467986
3.364435 0.000000 9.730781
8.237028 0.000000 -1.352888
1.099578 0.000000 -5.005705
-6.446118 0.000000 -5.625776
-8.379753 0.000000 -4.437815
4.212515 0.000000 -5.586406
-6.097788 0.000000 -9.136191
4.898817 0.000000 -3.004366
-6.602623 0.000000 1.749227
5.145725 0.000000 -3.762365
-2.672898 0.000000 -2.554985
-5.550695 0.000000 0.766877
-5.260953 0.000000 -4.331200
0.492281 0.000000 4.404059
-3.578190 0.000000 -5.660413
7.520854 0.000000 6.525191
1.294979 0.000000 8.182051
2.564650 0.000000 4.682712
-2.786790 0.000000 3.194923
6.619289 0.000000 8.161070
9.819731 0.000000 9.985323
-3.997960 0.000000 6.274678
2.602900 0.000000 8.236401
5.473899 0.000000 -0.047204
-2.861371 0.000000 4.674289
1.051371 0.000000 -0.457337
6.053168 0.000000 0.516640
-8.002843 0.000000 -7.715961
2.707914 0.000000 -7.485430
-1.308226 0.000000 -7.368556
-9.859993 0.000000 0.927113
-9.730407 0.000000 1.271275
-2.420586 0.000000 -6.554389
-6.567484 0.000000 1.947528
4.124294 0.000000 7.878510
-4.630468 0.000000 -7.961015
-8.180171 0.000000 -4.002662
-0.347840 0.000000 -4.832416
-4.365555 0.000000 8.330979
-3.307139 0.000000 8.814730
9.681238 0.000000 3.291112
-7.741399 0.000000 -4.386567
-9.709827 0.000000 -2.440666
6.024739 0.000000 -6.733554
-9.390528 0.000000 8.475557
3.202717 0.000000 2.196789
2.375490 0.000000 -1.534309
-2.764507 0.000000 -5.966478
8.749870 0.000000 -5.533267
-8.718500 0.000000 -3.548278
-5.718245 0.000000 -4.620730
-1.405313 0.000000 -0.791068
2.694568 4.211805 -1.311790
4.382799 2.406466 7.201897
-1.108123 -4.875660 -6.038577
-0.410005 4.983161 3.860474
3.584878 3.485491 0.704791
4.733819 1.609644 -7.529495
1.869514 -4.637339 0.584745
-0.394725 4.984395 5.992645
-3.820816 -3.225115 1.485507
-4.814064 -1.350847 -9.288312
-2.504963 -4.327258 6.920905
-2.291785 -4.443841 0.241969
-4.988092 -0.344867 2.503362
-0.768104 4.940649 -8.441190
3.801390 3.247990 -3.124913
-4.997435 -0.160144 -9.477599
4.972820 0.520634 3.676388
-2.350294 -4.413176 0.249903
4.937097 0.790614 -6.523158
3.861620 3.176144 3.110906
2.929621 4.051829 -1.120877
4.998204 -0.134019 -9.930266
-2.887002 -4.082305 2.136810
-4.704112 1.694500 -3.306981
4.998789 0.110047 -6.440154
-3.614187 -3.455091 7.436294
0.219443 4.995182 -8.398297
-3.791822 3.259154 8.061467
0.609400 -4.962724 -2.376728
-1.184889 4.857575 -7.891075
4.139157 2.804884 5.676671
2.854081 4.105389 5.148075
-2.538681 4.307563 -9.202854
0.376713 4.985789 -3.290793
4.658678 1.815688 -0.490838
3.744654 -3.313241 1.242554
4.371847 -2.426305 -3.547384
4.962751 -0.609180 4.658666
3.600472 -3.469381 -5.995730
2.126647 4.525193 0.315436
-3.812001 -3.235530 -2.436963
4.829271 1.295432 9.240442
2.962203 4.028071 7.311719
0.276573 4.992345 1.801459
-1.337816 -4.817702 -5.123072
-2.245556 -4.467379 -9.207162
-1.177447 -4.859384 -9.965899
-1.150372 -4.865865 3.273000
4.865923 1.150126 -6.166532
-2.068703 4.551974 4.283774
1.037951 4.891079 7.840981
4.333434 -2.494264 -0.555575
-1.452566 4.784355 8.300717
2.342854 4.417130 3.548129
1.981284 -4.590699 1.021978
3.651728 -3.415390 -5.795290
1.240104 4.843774 5.198739
4.345046 -2.473980 -9.188399
4.612286 1.930498 8.372170
-3.009129 3.993137 6.816754
-1.207167 -4.852087 4.102868
1.873058 -4.635909 -4.088297
0.223282 4.995012 0.603260
0.185651 -4.996552 -8.842289
3.781804 -3.270774 -4.408433
-4.998030 -0.140347 6.226634
4.952890 -0.684748 7.365786
4.918239 -0.900515 7.307634
-4.947817 0.720494 0.580795
-4.628831 -1.890482 9.411348
-0.894187 -4.919393 -6.598864
-2.627524 -4.253953 -5.479919
-1.862369 -4.640213 -3.641761
0.591072 -4.964940 -5.843876
3.202721 -3.839607 2.411204
2.521285 4.317768 -7.333216
3.918451 -3.105760 -3.841114
4.858705 1.180250 2.709021
-4.155186 -2.781084 -6.522612
1.906040 4.622446 6.046103
-4.081974 -2.887471 -2.652623
-4.217871 -2.685063 -1.152392
4.274906 2.593296 9.207417
4.917236 0.905976 -4.782169
0.743275 -4.944446 4.030773
4.968200 -0.563020 -9.841053
2.065857 -4.553266 9.538420
-4.819969 -1.329625 -8.506324
-4.862991 -1.162461 7.290966
4.831218 -1.288152 2.615998
-2.578307 -4.283962 -6.489615
3.409762 3.656982 -5.347401
-4.918705 -0.897963 1.180180
-2.925197 -4.055024 -7.908991
4.002446 -2.996736 -8.416012
3.411557 -3.655309 -2.159678
3.718462 -3.342610 1.942580
-2.095625 -4.539643 -5.848228
-0.700052 -4.950750 3.898916
-4.948882 0.713137 4.484868
-0.178761 -4.996803 1.120927
4.905734 -0.966321 -3.108549
0.385104 4.985147 -2.126370
-1.083720 4.881142 0.965955
0.120919 -4.998538 -9.756106
-4.414244 2.348286 -0.548304
-0.427354 -4.981703 2.857479
2.479882 -4.341680 5.158887
4.971068 0.537105 1.108606
3.706700 -3.355649 -3.100001
-3.208725 -3.834590 -8.555936
1.461431 4.781654 9.723182
1.865425 -4.638986 4.926154
-0.524041 4.972462 -7.671563
