3.269032 -3.783309 6.387982
4.856345 1.189923 4.142078
-3.950563 3.064809 3.701843
4.997925 -0.144032 3.418601
3.862273 -3.175350 5.322922
2.735880 -4.185088 5.886106
4.444837 2.289853 6.659416
3.815747 -3.231110 7.150868
4.815528 -1.345618 5.207635
4.760620 -1.528562 3.768967
-3.000009 -3.999993 6.055217
4.559135 -2.052873 8.985886
1.577631 4.744584 3.877288
4.472703 2.234933 2.943198
-3.201988 -3.840218 3.811512
4.674191 1.775370 3.096490
4.203807 2.707029 3.816937
2.168817 4.505134 4.236509
-3.920881 -3.102692 2.149513
-1.668661 4.713340 9.155673
-4.559397 2.052291 8.663726
4.992815 0.267955 4.814297
1.086554 4.880512 2.695138
4.998225 0.133205 4.316103
-3.707945 -3.354273 4.117535
4.728431 -1.625403 5.312119
-1.632093 -4.726127 5.251796
-0.203731 -4.995848 3.980150
-1.217902 4.849404 3.831457
0.703187 -4.950306 3.243414
-1.194095 4.855320 4.701530
0.144890 -4.997900 3.845741
-2.015939 -4.575586 2.110954
2.838624 -4.116092 0.238609
-4.848213 1.222633 1.412426
1.330514 -4.819723 3.248658
4.392049 2.389541 0.537207
4.913772 -0.924580 0.016041
0.814296 -4.933247 8.770343
4.911939 -0.934265 8.610604
-3.710380 -3.351579 3.013535
-4.812484 1.356465 8.907311
0.653975 4.957047 8.458996
0.122271 4.998505 3.242089
4.453433 2.273089 9.531401
0.276943 4.992324 4.697213
0.640771 4.958771 6.996343
-1.993728 4.585308 8.933422
-3.095027 3.926934 9.543748
-1.295425 -4.829273 0.100977
-1.261240 4.838313 4.921316
-0.171298 -4.997065 2.215097
3.509769 -3.561113 6.818161
4.960494 -0.627299 4.583332
-4.929544 0.836420 2.903081
4.987465 -0.353827 2.434689
4.813721 -1.352067 3.323487
4.338104 -2.486132 5.702165
3.990049 -3.013223 7.485426
-1.269079 -4.836263 1.675981
-4.999233 0.087557 1.568934
-0.659384 -4.956331 3.146212
1.714798 4.696751 6.533490
3.368097 3.695392 3.556350
-4.991572 0.290188 6.240926
-0.304533 4.990717 2.730704
2.224185 4.478058 0.157272
4.795531 -1.415233 1.076282
-4.554774 2.062531 7.174157
-4.996596 0.184473 1.338575
-3.784306 3.267878 4.952860
-4.187599 2.732035 3.829741
-0.644178 -4.958330 8.898878
-4.780255 1.466001 7.688586
-0.305379 -4.990666 2.148578
-0.350251 -4.987717 7.728850
-0.556403 -4.968945 2.945764
3.793786 3.256868 5.479332
-4.765915 -1.511970 3.945405
0.447900 -4.979898 0.513050
4.948063 0.718801 2.353653
4.385095 2.402278 9.411961
4.259015 -2.619312 7.567556
3.973176 3.035437 6.420902
4.753585 1.550300 0.133030
0.363952 4.986736 1.827216
-4.934530 -0.806481 1.856492
-3.967786 3.042479 6.489473
4.009785 -2.986908 5.329018
-2.130632 4.523318 1.128972
-3.151719 -3.881580 1.290307
1.631119 4.726463 9.353152
-1.132535 4.870048 8.464909
4.991372 0.293606 2.116027
-3.126512 3.901913 9.479597
-2.417795 -4.376559 8.536404
1.701600 4.701548 0.754771
4.989369 0.325879 3.548589
1.607064 -4.734696 6.264656
2.730268 -4.188751 5.826522
3.347593 -3.713977 8.097062
3.923001 3.100010 1.845143
-4.300738 2.550227 4.601183
2.832253 4.120479 3.706407
4.750877 1.558579 0.507332
3.776618 -3.276760 6.266372
0.421849 -4.982173 1.330617
4.881984 1.079920 6.037391
-4.508610 2.161581 8.090848
3.172641 -3.864498 4.485731
1.832958 -4.651910 2.850341
4.639030 1.865316 2.248659
-1.716700 4.696056 6.121252
4.137291 -2.807637 6.264528
-3.500891 3.569841 6.874168
4.999815 -0.042987 2.563835
-2.369495 4.402896 5.593156
-1.467026 -4.779941 9.607999
-4.183786 2.737870 9.061543
-4.915354 0.916130 5.204736
-2.796051 4.145129 9.350076
-2.936549 -4.046811 9.850266
4.940256 -0.770630 5.745407
-3.923511 3.099365 5.316240
4.099609 -2.862378 6.135536
-3.238592 3.809399 1.787665
4.997200 -0.167295 9.778322
4.540265 -2.094276 2.528574
4.604035 -1.950092 2.392784
-4.824887 -1.311667 5.489363
-0.693079 4.951731 1.166641
-4.913591 0.925542 7.758411
0.442289 4.980400 3.392440
4.790962 -1.430624 9.143845
-2.287222 -4.446191 9.690782
3.785352 -3.266667 2.398599
-1.887322 4.630120 5.969907
-1.295126 4.829353 7.720156
4.775650 -1.480935 0.258437
-3.694789 3.368759 6.945412
-4.938217 0.783589 0.879182
4.221789 -2.678899 3.169900
2.259000 -4.460596 3.169064
-4.988369 -0.340844 5.217003
4.366244 2.436374 3.123249
-3.895511 3.134485 0.352156
-3.804534 3.244306 3.890324
-4.929877 -0.834454 2.541724
-3.553951 -3.517020 8.547864
4.917900 -0.902363 1.373058
-1.195511 -4.854972 5.839396
3.786824 -3.264959 0.414504
-4.806732 -1.376709 2.874332
2.830739 4.121519 3.574246
0.743081 4.944475 4.071583
-4.246318 2.639845 9.617303
-4.488153 -2.203742 8.505642
4.988651 0.336696 1.328958
1.609873 -4.733741 4.165188
-2.420985 -4.374795 0.879726
2.688716 4.215543 8.731010
3.642691 -3.425026 8.095162
3.429973 3.638033 5.865434
4.442665 -2.294063 4.399452
1.233982 -4.845337 4.242767
4.999305 -0.083355 9.105566
3.902017 -3.126382 0.880561
4.086414 -2.881184 0.127022
-0.732037 4.946122 7.939775
4.921728 -0.881244 2.767858
0.110171 4.998786 1.191701
4.908274 0.953336 4.472251
-4.943577 0.749029 2.145939
-4.760331 -1.529461 5.978192
3.946837 3.069605 9.925735
1.907103 4.622008 3.933111
1.459111 4.782363 7.834494
4.979529 0.451983 1.138988
2.843560 4.112684 5.660575
-0.498348 -4.975103 6.752774
0.914808 -4.915600 6.794136
-2.976640 -4.017414 3.607959
-0.721526 -4.947666 2.213523
3.937082 3.082108 3.725287
0.784395 4.938089 2.400243
4.869272 -1.135866 7.308373
-4.994403 -0.236519 7.646622
0.535741 4.971215 7.517478
-4.914274 0.921904 6.192800
3.473473 -3.596524 1.771494
3.131212 -3.898142 4.171016
-3.543282 -3.527768 2.560116
-1.574529 4.745615 6.194794
-4.938689 0.780612 1.658087
-1.740726 -4.687203 5.530456
-0.888480 4.920427 4.675782
-3.662112 3.404252 6.658745
2.516411 4.320611 8.492401
1.067927 4.884622 8.524525
-3.899414 -3.129628 8.385642
4.528785 -2.118987 0.850245
4.999401 0.077361 3.916832
-4.732680 1.612991 2.361646
2.221369 -4.479455 6.078287
0.131768 -4.998263 2.350345
-2.941527 -4.043194 4.774177
4.765216 1.514173 2.615096
4.910451 -0.942056 8.026762
-1.560154 -4.750360 4.616525
1.022482 -4.894337 2.935862
-2.299408 4.439901 4.506596
3.250109 3.799577 1.402846
1.786772 -4.669844 8.225133
3.797368 3.252691 0.378253
2.555352 -4.297694 0.540497
-3.930575 -3.090401 5.240148
4.846762 1.228371 0.684313
-3.570032 -3.500695 0.712576
-4.014503 -2.980565 8.178522
3.783570 -3.268730 8.284657
-2.980961 4.014209 1.615533
0.538082 4.970962 0.668986
1.263711 -4.837668 8.447756
-4.983280 -0.408554 3.833144
3.739250 -3.319339 6.825885
0.011799 -4.999986 1.833053
-4.471702 2.236935 9.984751
0.864124 -4.924763 2.592615
-4.749349 1.563229 1.411727
4.599748 1.960182 0.958486
4.602388 1.953977 1.080313
-3.414868 -3.652215 5.777700
4.739696 -1.592258 2.367453
-4.208781 -2.699290 6.233093
0.004306 -4.999998 0.016090
-2.991606 4.006282 0.069175
2.304937 4.437034 6.908369
-1.283082 4.832567 1.269445
2.165371 -4.506792 7.700959
-4.738479 1.595875 7.968125
3.382002 3.682671 3.084638
-3.625086 3.443654 7.610852
-4.411733 -2.353001 8.996912
-1.549966 4.753694 1.855453
-1.420977 -4.793832 1.766308
-3.446887 3.622012 2.484676
-3.799689 -3.249979 1.391683
-4.075073 2.897203 3.653490
0.626910 -4.960543 1.800156
4.411099 2.354188 4.537390
-4.980836 -0.437348 7.222120
4.964815 -0.592129 7.467635
-4.613327 -1.928008 5.299566
3.692841 3.370894 3.006234
-4.626830 1.895375 2.101703
-3.800768 -3.248717 9.716025
4.444019 -2.291439 5.764004
-4.542201 2.090075 7.598768
4.684062 1.749160 0.258025
4.999594 0.063686 3.053427
3.974744 3.033382 3.623925
4.528567 2.119453 8.883500
4.861655 -1.168038 0.121480
4.008009 -2.989292 0.914351
3.022793 3.982804 2.336618
-4.036417 -2.950819 3.168508
0.824031 -4.931630 0.304774
2.786147 -4.151793 0.384314
4.059480 2.919011 1.605566
2.884660 4.083961 0.687655
-3.785271 3.266760 6.482571
-4.943146 -0.751867 5.754851
4.617368 1.918311 7.530345
3.753254 3.303496 2.411850
2.646327 -4.242282 1.353599
4.725113 1.635025 4.140870
1.817551 4.657951 2.581118
-2.538685 4.307561 6.429502
-3.560117 -3.510778 6.826369
-4.572087 -2.023864 3.123383
4.899950 0.995233 8.575529
3.578723 -3.491810 9.581926
2.458793 4.353658 1.235467
-2.884892 4.083797 4.808864
4.102062 2.858861 4.423183
-4.914121 0.922719 8.813193
1.242725 4.843102 3.079045
-2.424667 4.372756 4.931663
3.450350 3.618714 3.612451
2.823253 -4.126650 2.006020
-3.765609 3.289406 0.293205
4.995293 -0.216894 0.792147
3.308072 -3.749221 8.107655
2.332841 4.422426 2.209207
-0.493316 4.975604 1.013368
-4.986093 0.372656 2.053823
-4.917766 -0.903093 5.909720
-2.397078 4.387940 0.465070
-4.176303 -2.749271 4.959663
4.985503 -0.380480 9.288912
-0.463446 4.978475 6.102547
0.162309 4.997365 6.301868
4.087222 -2.880037 4.244430
4.721800 1.644567 3.249945
-3.387586 -3.677535 3.456826
-4.637036 -1.870266 8.927026
-0.177177 4.996860 3.798168
4.521454 -2.134584 1.019034
4.999957 -0.020829 1.714060
-3.856361 3.182527 3.643735
3.664687 3.401480 0.047991
4.987092 0.359041 6.611843
4.092110 -2.873088 2.414444
0.876186 -4.922631 5.034180
4.880587 1.086218 4.625769
-1.459937 -4.782111 9.362087
-4.548739 2.075806 1.656786
1.919409 -4.616911 3.078422
4.965561 -0.585840 9.668585
-4.203542 -2.707441 4.293442
-0.509046 -4.974020 6.758717
4.829500 1.294578 5.240998
4.508181 -2.162477 3.697824
1.435009 -4.789650 7.887192
-3.052810 3.959842 9.749748
-2.899824 -4.073208 2.949483
-1.432684 4.790346 2.915926
-4.959741 -0.633218 4.761567
-0.418619 -4.982445 7.519415
4.542577 -2.089256 5.913138
4.497033 -2.185565 4.624265
2.439095 4.364724 6.449606
4.532885 -2.110202 3.166982
-3.486606 3.583794 8.954599
0.826991 4.931134 6.598833
2.233566 -4.473386 4.604046
-2.459460 -4.353281 9.220611
-4.649811 -1.838275 8.975429
-3.857746 -3.180848 0.678015
-4.752981 1.552150 6.766454
-2.899318 4.073568 3.421832
0.631814 -4.959920 9.376150
4.758370 -1.535551 0.305572
-4.448027 -2.283649 7.698801
-1.781524 4.671849 4.770161
3.031864 3.975902 7.552852
0.418665 4.982441 7.337056
-3.712515 -3.349213 4.811860
4.032981 -2.955514 5.503096
-4.130249 -2.817985 3.036068
4.993441 -0.256020 2.173999
-4.911509 -0.936523 4.819820
-4.157226 2.778034 6.103307
-4.873276 1.118563 0.194311
-0.725408 4.947098 5.964263
-4.328691 2.502486 2.772338
0.419051 -4.982409 1.216685
4.736816 -1.600805 9.040394
3.257875 -3.792921 5.851722
1.467498 -4.779796 0.426268
4.080672 2.889310 8.234903
4.976770 -0.481420 7.248870
-4.999994 -0.007905 4.304914
4.757780 1.537378 8.649755
-0.285125 4.991864 6.444912
0.637418 4.959203 3.019087
0.156249 4.997558 4.865440
-4.781728 1.461191 9.501812
-2.293133 -4.443145 2.826428
-3.666870 -3.399127 6.798317
-3.902497 3.125783 0.270656
4.417406 -2.342333 2.408982
-0.737538 4.945305 7.670995
3.206558 -3.836403 3.839397
-2.584755 -4.280075 5.627865
-2.623445 -4.256470 5.843907
-1.705043 -4.700301 9.044268
4.120295 -2.832519 2.010313
-0.773869 4.939750 0.723623
3.789108 -3.262309 7.627657
-4.895835 -1.015285 0.462814
1.819114 -4.657341 7.631937
-4.340985 -2.481099 7.920144
-2.920710 -4.058258 5.906978
-1.476447 -4.777039 7.724547
4.779864 1.467278 8.153728
-2.281013 -4.449380 4.154016
3.797013 3.253105 9.726952
-0.057255 4.999672 2.128628
-4.991024 -0.299472 8.778935
4.063966 2.912761 2.520571
-4.939962 0.772513 6.318837
4.026654 2.964129 9.114083
1.211230 4.851074 0.293364
4.958957 -0.639330 6.220420
4.750272 -1.560421 6.572291
-1.368900 -4.808962 1.777854
4.839220 -1.257757 3.978036
-4.337655 -2.486915 7.010766
4.999999 -0.002472 5.836932
2.467283 4.348852 4.832049
2.903438 -4.070632 9.247031
-1.140246 -4.868248 6.697408
-4.947432 0.723129 2.259703
3.325950 -3.733371 2.351095
-2.394634 4.389274 2.215853
-4.945799 0.734214 0.905166
1.290243 -4.830660 4.648242
-0.706211 -4.949875 3.331612
-3.168401 3.867976 4.209529
-3.544094 -3.526954 4.315155
-4.332111 -2.496561 4.695936
-1.721404 -4.694334 8.133362
-2.566323 -4.291152 6.105244
0.582721 4.965927 8.289896
0.013910 4.999981 4.071985
-4.949206 -0.710884 2.922138
1.359422 4.811650 1.493482
3.236664 3.811038 0.109108
-4.083549 2.885243 4.639136
4.691245 -1.729804 1.472144
3.388905 -3.676319 2.150129
-1.849499 4.645358 5.410628
-4.942150 -0.758387 9.413086
-4.937899 0.785593 2.596405
-4.999104 -0.094634 3.044030
4.444899 -2.289731 9.950922
2.782388 -4.154313 8.675347
-4.970782 -0.539743 8.046597
-2.411329 -4.380125 2.793908
-2.185079 -4.497269 9.704803
-4.843675 1.240491 5.332293
4.809220 1.367991 0.584401
1.446169 -4.786292 3.164494
4.459326 2.261506 7.419010
-3.414772 -3.652305 8.867411
-4.936301 -0.795569 7.233948
4.999858 -0.037645 4.908227
-2.559493 4.295229 6.958244
4.845374 1.233834 5.969115
-4.611493 -1.932391 6.484773
4.884432 -1.068795 7.855831
4.986425 -0.368195 7.486096
0.204560 -4.995814 6.448879
-1.864536 4.639343 0.763498
0.930897 4.912579 9.869594
4.836485 1.268234 8.603858
-0.971685 -4.904674 1.915454
-4.991974 0.283185 4.169480
-3.122419 -3.905189 0.532862
2.863123 4.099088 5.367838
-4.551954 2.068748 4.159778
-3.837588 -3.205139 9.888592
2.904330 4.069996 8.368363
-2.330989 4.423402 1.199894
-0.146613 -4.997850 8.181787
1.708386 4.699087 6.059549
-4.313632 -2.528355 8.204755
-4.983405 0.407028 1.479947
-4.633226 -1.879685 1.871275
-3.384073 3.680768 1.652135
4.999688 -0.055893 2.863666
5.000000 -0.001006 3.687036
-4.926354 -0.855008 0.883532
1.923643 4.615149 6.533954
-3.896694 3.133013 1.939423
4.482588 -2.215041 6.019809
-3.095085 -3.926888 0.075027
2.561955 4.293761 6.963402
-3.979056 -3.027725 2.986997
2.263044 -4.458546 0.187809
4.470013 -2.240309 1.949400
2.910259 4.065758 0.165906
4.758925 1.533830 6.054289
-4.988500 -0.338918 9.740559
-2.006510 4.579729 7.386380
-1.624133 4.728868 9.834922
-2.582819 4.281244 8.526970
-4.108711 -2.849296 0.127713
-3.273738 -3.779238 0.047782
1.186986 -4.857063 3.059970
-4.417098 2.342913 6.912805
-3.149263 3.883573 1.175743
4.886172 1.060810 9.784041
-3.260719 3.790477 3.916755
-4.486710 -2.206680 3.285179
-4.585610 -1.993032 3.570895
-4.443044 -2.293329 0.583018
4.948471 -0.715985 4.834151
4.999448 -0.074295 7.812817
-3.790288 3.260938 4.226606
-2.772006 4.161248 5.476868
4.596635 -1.967472 5.377932
-4.218272 2.684433 0.890984
4.941295 -0.763938 4.378989
-4.191619 -2.725862 8.700999
2.230833 4.474750 0.252534
4.584890 -1.994689 2.456144
4.983585 -0.404824 8.339127
-3.955450 3.058498 4.669916
-3.678371 3.386678 0.225807
-3.470323 3.599564 0.671581
0.448331 4.979859 3.012590
2.042604 -4.563745 8.867426
3.498357 3.572324 9.624341
-3.419701 -3.647690 3.704303
-4.874332 1.113951 5.231034
-1.335611 -4.818313 8.153321
4.621654 -1.907961 5.528207
3.540495 -3.530566 1.124721
3.427162 3.640682 9.390630
-3.401033 3.665102 5.885886
1.538249 4.757498 5.777853
-2.089996 -4.542237 1.164176
2.550940 4.300315 8.770609
-4.599811 -1.960037 0.823703
-4.948229 -0.717654 6.094149
4.918820 0.897336 0.258733
4.974567 -0.503674 2.309528
3.396576 3.669233 2.875668
-4.952714 -0.686018 1.119974
-1.451388 -4.784713 2.620122
1.470813 -4.778777 5.890294
0.299907 -4.990997 9.009445
2.937204 4.046336 7.498135
3.523695 3.547334 4.636130
-0.112397 4.998737 2.784651
0.850098 4.927203 6.488714
1.388748 -4.803268 3.412863
4.420885 2.335760 2.240765
2.687059 4.216600 2.675811
-2.654374 -4.237251 9.542855
-0.686130 -4.952699 5.857790
4.176820 -2.748486 1.262760
4.997775 -0.149149 4.926084
-3.586854 3.483458 5.174070
0.111759 -4.998751 3.075062
-2.346281 -4.415311 2.757797
3.352806 3.709271 7.518303
-0.912223 -4.916081 8.440152
3.324419 3.734734 2.723543
-4.761709 1.525164 5.490193
-0.095984 4.999079 2.678870
-4.973724 -0.511932 3.512062
-3.689712 -3.374319 0.356749
4.073233 -2.899788 6.168857
-4.872889 -1.120245 0.812453
4.582971 -1.999095 4.640306
-4.927729 0.847046 2.593823
-0.634993 -4.959514 9.252978
4.340468 -2.482002 8.289918
4.482681 -2.214852 5.414755
-4.494503 2.190764 0.623265
3.210453 3.833143 6.936939
0.836117 -4.929595 2.127932
-4.989923 -0.317278 0.101393
-4.394531 -2.384973 6.652078
0.926151 4.913476 1.657773
4.425587 -2.326839 1.287547
4.986546 0.366546 3.286161
2.139095 -4.519322 9.172568
2.927890 4.053080 3.217673
-2.751195 -4.175036 2.198063
-3.570829 -3.499883 0.741478
-1.116792 4.873682 8.203617
3.733380 3.325939 6.854680
4.974889 -0.500479 5.618962
-4.931214 -0.826515 7.605937
-1.834533 -4.651289 2.927411
4.995437 0.213559 6.557534
4.993477 0.255310 9.738769
-4.387929 -2.397099 0.997771
-4.976348 -0.485758 0.720523
1.988370 -4.587634 5.267734
-3.646777 -3.420675 9.926564
-4.980933 0.436236 2.539599
-2.625173 4.255404 6.995400
3.104720 3.919275 2.777301
-2.075603 4.548832 8.589205
3.542060 -3.528996 6.339271
-0.869115 -4.923885 6.642539
-3.885231 3.147218 9.537249
2.913004 -4.063793 4.331578
-0.435367 -4.981009 8.402636
1.648990 4.720258 0.019611
-4.769880 -1.499416 5.676053
-2.624473 4.255836 7.320864
2.107784 -4.534010 8.007141
-0.829681 -4.930683 2.373696
4.984576 0.392434 5.229828
3.236116 -3.811502 7.953324
4.999951 -0.022246 6.979645
-4.953740 0.678571 2.959912
0.422565 4.982112 4.234296
0.588898 4.965199 2.431236
-2.083368 -4.545281 0.201400
-3.271316 -3.781335 0.919818
-4.213661 -2.691666 3.747173
0.834557 -4.929860 9.648666
-1.139011 -4.868537 5.257106
-1.395089 -4.801430 6.700119
3.845161 -3.196050 9.520525
4.742023 -1.585313 1.218083
1.794004 -4.667071 8.117527
4.680854 -1.757728 8.905463
2.133111 4.522150 6.286266
-2.348393 4.414187 5.712354
3.544828 -3.526215 4.718908
2.718365 4.196486 3.426777
-4.502989 -2.173268 8.254920
4.865983 1.149875 7.928225
-4.750055 -1.561083 8.526312
-4.999072 0.096348 6.104128
-3.959021 -3.053874 9.983364
-0.910281 4.916441 9.156750
-4.200511 -2.712140 0.526109
4.556641 2.058403 0.064075
2.112004 -4.532046 5.399233
1.369760 -4.808717 8.489493
-4.479509 -2.221260 8.436936
-3.287193 -3.767541 6.866472
-1.188002 4.856815 0.433577
-4.265039 -2.609491 6.262307
1.187127 4.857029 1.634066
4.959740 0.633231 5.133845
1.047711 -4.888998 1.152413
0.981105 4.902798 9.296757
3.057905 3.955909 4.631022
-4.354931 -2.456538 5.753642
-2.965456 -4.025677 7.156165
1.472532 4.778248 8.944391
2.902456 -4.071333 9.235973
4.847396 -1.225866 3.453947
-3.802441 -3.246759 7.913121
4.079239 2.891334 2.341731
4.645726 1.848576 7.098007
4.970718 -0.540333 5.382960
2.193411 -4.493211 0.435654
-2.254031 4.463109 2.448972
3.131605 3.897827 0.614975
3.747174 -3.310391 4.876737
-4.947226 -0.724538 5.767164
-2.364585 -4.405535 0.911196
-0.929695 -4.912807 2.878106
-4.972356 0.525049 7.554494
-4.979633 -0.450837 8.130614
4.976016 0.489143 6.494124
4.387925 2.397105 4.564084
4.849616 -1.217057 6.049628
-1.500967 4.769392 1.040306
1.300549 4.827895 6.543282
0.385749 4.985098 2.648497
3.654055 3.412899 0.592475
3.263836 -3.787793 3.087168
-3.761602 3.293987 2.644874
2.908833 4.066779 9.189553
-4.978323 0.465081 6.524658
-3.196597 3.844706 4.918571
4.824532 1.312969 5.567930
4.622818 -1.905139 7.977398
-4.759749 1.531269 6.875453
4.598305 1.963565 9.231942
-4.914361 -0.921444 5.869479
-4.868870 1.137589 1.660065
-1.127340 4.871253 5.506036
-3.164554 3.871123 7.981896
-4.949587 0.708231 2.537665
4.960487 -0.627348 4.510249
4.079959 -2.890318 5.037426
-4.306644 2.540240 9.089577
-4.891975 1.033721 6.108107
2.665432 4.230304 7.242351
-1.368503 -4.809075 0.101213
4.220674 2.680655 8.171148
-3.888691 -3.142942 1.158048
-1.360194 4.811431 2.104133
-1.612607 -4.732811 4.546806
-1.173425 -4.860357 3.329993
-4.148511 2.791031 1.109688
0.971538 -4.904703 4.132120
-4.270703 -2.600211 4.026585
-0.134192 -4.998199 6.709341
-4.995075 -0.221878 7.637713
-4.596038 -1.968867 5.783933
2.598938 4.271478 8.781693
4.997136 0.169212 3.063335
2.217323 -4.481459 3.116858
4.947735 -0.721050 4.928210
3.003313 3.997513 3.177594
4.983350 0.407706 0.358305
4.818404 -1.335283 7.223551
4.029183 2.960690 3.560471
-3.588233 -3.482038 3.264259
4.857792 1.183999 3.648800
0.908580 4.916755 0.843099
4.976471 0.484501 5.410379
-0.493692 -4.975567 8.394131
-3.336716 -3.723752 7.936414
3.774661 3.279014 5.714265
-3.388255 3.676919 1.560069
2.208746 -4.485693 0.231799
-2.755257 4.172356 5.257578
-0.972131 -4.904586 8.490240
1.032728 4.892185 3.489140
2.736189 -4.184886 0.176992
-2.369474 -4.402908 9.706023
0.435658 -4.980984 7.710397
4.985565 -0.379654 9.575656
4.961481 -0.619437 5.865655
-2.489811 -4.335994 5.867936
4.338213 2.485941 6.898612
3.068931 -3.947361 3.713544
-4.711522 -1.673788 7.891339
-4.983963 -0.400135 6.165213
-4.243338 -2.644633 8.805515
-3.018916 -3.985743 1.399138
-4.826948 -1.304060 4.212809
4.898021 1.004685 0.091116
0.067762 -4.999541 1.455851
1.270867 4.835793 8.442507
-4.535731 -2.104077 2.303683
2.448655 4.359368 2.680836
4.412160 2.352201 4.778987
4.852072 -1.207226 4.809721
3.221569 3.823806 4.566592
0.486560 -4.976270 5.346614
-2.274508 -4.452708 4.710207
-2.348487 4.414138 6.112453
-0.296901 -4.991177 6.679115
0.829462 4.930719 8.545365
4.127152 -2.822520 2.196314
-2.324962 4.426573 8.160324
1.115347 -4.874013 1.012380
-4.984166 -0.397602 3.813896
-4.983055 -0.411296 5.163345
2.113865 4.531178 5.174325
-3.871525 -3.164063 3.906544
1.352016 4.813736 2.088880
-0.103843 4.998922 4.319808
4.933910 -0.810268 4.665456
4.951618 -0.693886 3.896827
-4.985888 0.375398 6.149900
3.892260 3.138520 4.102636
1.335953 4.818219 7.851247
-3.410079 -3.656687 8.489559
-1.651493 4.719383 6.658367
3.323514 3.735539 5.932913
4.162337 2.770370 9.073466
4.802288 -1.392132 9.881206
-2.225367 -4.477470 5.785816
1.777996 4.673193 4.758452
3.404907 -3.661503 2.451439
-0.005470 -4.999997 9.289687
-4.620681 -1.910317 7.017088
0.311748 -4.990272 4.718919
2.079404 -4.547096 8.580717
-3.207782 3.835379 2.207771
3.050438 3.961670 2.496695
1.177263 -4.859429 3.309625
4.338093 2.486151 4.436101
3.112864 3.912809 8.556679
3.345217 3.716117 9.566385
4.693991 1.722338 5.836234
2.340907 -4.418162 2.784281
4.930257 0.832204 8.288743
3.678510 -3.386527 0.397220
3.118206 3.908554 0.603767
-2.220479 4.479897 4.874178
3.320530 -3.738192 6.140133
4.927369 0.849139 6.386977
4.974189 0.507391 7.538270
1.023234 -4.894180 6.296621
-3.629520 -3.438980 2.774639
4.983025 0.411660 3.150281
3.030343 -3.977062 3.011618
4.962354 0.612411 2.830603
3.739055 3.319558 7.660461
-4.281240 2.582825 2.943092
1.638013 -4.724078 4.442210
-2.446469 -4.360595 4.716646
-1.772388 4.675322 5.732526
4.934835 -0.804615 8.893398
1.031481 -4.892448 0.302035
-4.992637 -0.271249 3.588910
-2.444150 4.361895 8.573694
2.990082 -4.007419 0.066069
-4.940246 -0.770695 7.517473
-4.627787 -1.893036 2.079193
3.070097 -3.946455 3.331795
1.577698 4.744562 3.736588
1.219309 4.849050 6.763571
-3.066970 3.948885 5.681058
-2.813704 -4.133167 9.085848
-1.460285 -4.782005 9.324051
-3.667365 -3.398593 8.160177
4.861170 1.170053 7.001895
-1.050704 4.888356 1.995544
3.638148 3.429852 9.866506
-1.359052 4.811754 8.424193
1.536580 -4.758038 2.157108
0.353018 4.987522 7.693984
0.286340 -4.991794 7.789373
-2.024181 -4.571946 8.720798
3.952719 3.062027 8.966911
-3.594540 -3.475527 0.495121
-4.938607 -0.781128 2.840377
-2.326851 4.425581 6.176148
4.708466 1.682364 8.518067
-1.009591 4.897012 9.412587
-0.296998 4.991171 2.355539
-4.953345 0.681451 7.112156
2.832960 4.119992 0.424097
-0.289579 4.991607 7.446500
-4.757910 1.536974 6.605040
4.674468 1.774641 2.880036
4.645373 1.849462 9.457317
1.726545 -4.692445 8.333511
1.018567 4.895153 1.974650
-1.028475 4.893081 7.301833
4.999646 -0.059492 0.817671
-1.076632 -4.882711 1.660242
0.579061 4.966356 4.638950
1.475453 -4.777346 6.520213
4.949558 0.708429 4.245915
4.513089 2.152216 0.070335
3.342886 -3.718214 4.570311
3.310133 -3.747402 5.183806
-0.817019 -4.932796 7.254937
-2.841245 4.114284 9.910910
4.006407 2.991438 7.010038
2.499133 4.330627 6.606535
3.218423 3.826455 5.674966
3.234692 3.812711 6.069203
-2.849256 -4.108739 2.347229
-1.910775 -4.620491 0.651852
-4.052329 -2.928930 2.819059
0.214649 4.995390 2.630827
-4.268976 2.603046 0.960369
-4.686679 1.742137 5.425016
-4.940853 0.766790 3.270084
4.572750 2.022364 9.262368
-2.869341 -4.094738 1.489023
-4.973694 -0.512220 5.869226
0.313421 -4.990167 1.474459
1.818856 -4.657442 8.364977
4.156807 -2.778661 9.434507
1.663048 4.715323 9.950671
1.690155 -4.705675 6.465777
-4.944401 -0.743569 0.524555
3.083312 3.936138 8.598318
0.411502 -4.983038 8.804720
-4.314556 2.526778 8.615615
3.379073 -3.685358 8.526405
1.010443 4.896836 1.004591
-4.989233 -0.327947 7.865958
1.334522 4.818615 2.290332
-4.892146 1.032912 2.058233
-0.776185 4.939386 4.835679
-2.032664 -4.568181 0.021293
1.799973 -4.664772 8.335741
-4.128532 -2.820500 4.801645
-4.562469 -2.045452 2.937440
3.766117 3.288824 1.866261
-2.941803 4.042994 8.914391
4.105159 2.854413 5.194350
-4.967564 0.568605 0.988022
1.866549 -4.638534 4.771530
-3.126116 3.902230 4.913563
-4.888949 -1.047941 5.306024
4.841393 1.249364 2.981094
-2.140324 4.518740 9.912440
0.188137 4.996459 8.256612
-2.650736 4.239528 8.332825
4.500415 2.178593 6.876037
4.879633 1.090496 7.033483
-2.541507 4.305896 6.736110
-4.059320 -2.919233 9.893136
1.857208 -4.642282 7.719607
3.524377 3.546656 8.319498
4.829129 -1.295960 4.036248
2.819668 4.129101 4.666406
4.275730 -2.591936 9.578611
-3.507350 -3.563495 5.533654
-3.343010 3.718103 9.673620
-0.982631 4.902493 0.191485
4.999852 -0.038510 7.605583
-0.052096 4.999729 9.867126
-0.049076 4.999759 8.808426
1.096729 4.878236 2.357346
-0.081783 -4.999331 1.523941
4.401029 -2.372961 9.350088
-4.702258 1.699638 6.425723
4.920945 -0.885609 7.116550
-4.910091 -0.943931 1.489641
0.948318 4.909246 2.964694
-4.171022 -2.757277 3.072968
-1.036484 -4.891390 1.449247
-4.524420 -2.128291 8.944120
-1.165994 -4.862145 8.461189
4.806659 -1.376964 2.142249
-4.943059 -0.752443 4.205671
4.994561 -0.233145 6.751099
3.226099 -3.819985 3.276317
1.541506 4.756444 0.438938
-4.723366 1.640067 8.995133
2.544347 -4.304219 8.808203
-3.294348 -3.761286 9.469945
2.280670 4.449555 6.540095
-2.951530 4.035898 6.228796
-2.583318 -4.280942 9.355184
1.070652 -4.884025 7.353115
4.145268 2.795845 9.236687
-4.372250 -2.425578 7.996910
0.373750 4.986012 0.583200
4.956637 0.657074 9.743335
4.361011 2.445728 4.632820
-4.927704 0.847189 2.686382
4.646729 -1.846051 9.599309
0.640856 4.958760 8.646720
-3.414301 3.652746 9.661710
4.977308 0.475820 2.543710
-4.630795 -1.885665 9.203002
-4.918043 0.901583 5.670294
3.667424 -3.398530 4.099636
3.464841 3.604841 2.846545
-2.665575 4.230214 4.879177
4.989347 0.326212 8.584492
1.983744 -4.589636 0.935041
4.089290 2.877101 5.427373
-0.133610 -4.998215 5.936029
4.114246 2.841299 5.530941
1.061787 -4.885960 5.454309
-0.081730 4.999332 5.585000
4.545441 -2.083017 2.145578
4.999428 0.075659 2.155914
-4.998515 -0.121849 0.953378
-4.350462 2.464444 7.324411
3.911307 -3.114752 6.649351
4.947103 0.725378 2.330172
2.002015 -4.581696 1.644803
4.599521 1.960715 6.968450
0.741077 -4.944775 7.983596
2.145880 4.516104 7.865888
-1.421749 4.793603 6.399896
3.442480 -3.626201 0.829222
2.021334 -4.573206 2.914251
-4.986405 -0.368459 2.580927
2.669629 -4.227656 1.633193
-4.476707 2.226902 2.947093
4.998989 0.100522 6.958599
4.195244 -2.720281 0.122973
4.477106 -2.226101 4.472812
4.851047 -1.211341 1.203765
-0.357096 -4.987232 4.467121
-0.687996 -4.952440 6.965982
-2.067120 4.552693 2.556121
-3.600368 -3.469489 2.294493
1.024518 -4.893911 5.657645
3.693089 -3.370622 3.221493
4.061601 2.916058 9.814012
4.977614 0.472607 8.477815
4.963246 0.605134 3.515602
-3.314405 3.743624 7.879351
-3.043808 3.966766 5.285419
0.852686 4.926756 5.044622
4.354697 -2.456952 8.429956
-4.450304 -2.279209 8.867965
-4.999997 0.005490 4.027376
2.121569 4.527576 3.905505
-4.988296 -0.341908 3.867191
3.470904 -3.599003 0.101740
-1.040254 -4.890590 5.011898
2.181009 -4.499244 9.955233
3.669157 -3.396658 4.801660
-4.991274 0.295267 1.299885
1.203365 4.853031 4.482873
3.801692 -3.247636 2.722216
0.568595 4.967565 4.270957
3.295083 -3.760642 7.418814
-0.128644 4.998345 7.250870
-4.361046 2.445666 7.566549
4.988136 0.344235 9.403981
4.139589 2.804247 5.406943
0.594625 4.964516 2.247784
-1.260414 -4.838528 0.763399
2.336874 4.420296 0.536436
-0.619751 4.961442 9.196019
4.113009 -2.843090 3.781433
-2.422444 4.373987 9.498199
4.938964 0.778869 3.802908
3.569902 3.500828 7.286941
-0.810712 4.933837 4.214510
-2.321731 -4.428269 9.082001
4.998000 -0.141423 7.016771
4.387717 2.397487 8.351506
-4.189485 -2.729141 4.140844
1.185437 4.857442 0.484603
-4.607899 1.940945 0.942619
-0.283121 4.991978 0.351799
-4.178675 -2.745664 3.678507
