-4.277131 2.589624 6.782515
-4.631594 -1.883702 2.787755
-2.648941 -4.240650 4.530047
-3.210251 -3.833313 4.882687
0.366988 4.986514 0.291563
-4.741964 -1.585490 6.345483
3.070014 3.946519 8.895295
2.152760 4.512829 1.594937
4.982824 0.414086 7.500405
0.532785 -4.971533 8.685494
-4.903417 0.978008 0.352777
-3.369370 -3.694231 8.439761
4.793880 1.420816 8.501718
1.812478 4.659927 2.421035
1.987252 4.588118 1.544086
4.847550 1.225258 4.310560
4.800144 -1.399506 4.674706
-4.529926 -2.116546 4.770036
-0.451658 4.979559 3.481074
-4.923805 0.869568 2.252116
2.021883 4.572963 1.363438
-3.658655 -3.407968 8.606727
-1.307998 4.825882 5.095147
-2.608618 -4.265573 5.720570
-4.812911 -1.354948 6.394470
-0.942632 4.910341 3.981561
-4.485977 -2.208169 5.546529
4.847226 1.226541 6.724327
-3.892866 3.137769 1.433076
-3.425144 -3.642580 8.705638
-4.983069 0.411121 3.929762
3.927889 3.093815 8.958805
0.791678 4.936927 5.527401
0.386826 -4.985014 5.299705
4.962434 -0.611757 3.807889
4.857720 1.184295 9.899441
-2.215982 -4.482123 9.993611
0.603005 -4.963505 0.789441
-0.056682 -4.999679 6.121639
2.525670 -4.315204 6.441772
-0.252543 4.993618 5.367484
4.557947 2.055511 9.996363
4.388968 -2.395195 1.550437
4.059251 -2.919329 7.067977
-4.950078 -0.704792 3.796931
3.693442 -3.370236 8.617044
4.981750 0.426807 8.968686
3.865842 3.171004 2.937726
-0.568519 4.967573 8.767631
-2.608146 -4.265862 3.081537
-3.647546 3.419855 1.949801
0.439782 -4.980622 4.149495
-1.642840 -4.722402 8.388081
-3.570327 3.500395 7.956509
4.936298 -0.795592 7.770598
4.599532 1.960690 3.164250
0.213664 -4.995433 7.522177
1.184935 -4.857564 8.357559
4.993370 0.257408 4.054255
2.657646 4.235200 4.845930
0.776965 4.939264 6.702088
2.550574 4.300531 9.212418
-0.675706 -4.954132 4.049166
3.482113 -3.588159 6.806284
-0.961111 4.906757 9.399303
0.175236 4.996928 2.670629
-4.777735 1.474194 1.652824
-1.368408 4.809102 3.457542
-4.951457 0.695036 2.575909
4.747663 -1.568342 8.727347
-4.939967 0.772479 3.426638
4.998994 0.100275 6.268967
2.585877 -4.279397 4.005262
-1.812472 -4.659930 5.607237
4.209761 2.697760 9.264219
-4.452822 2.274285 7.536240
-3.389075 -3.676162 1.792264
-2.271557 -4.454215 7.985523
3.987162 -3.017042 6.618843
-1.595359 4.738653 1.045950
3.212030 3.831822 1.806031
3.969523 -3.040212 6.787002
-0.758222 -4.942176 6.899615
-3.173564 3.863741 5.230949
-3.159294 3.875417 2.100943
-4.893544 -1.026268 4.872377
4.729230 1.623080 8.382157
-1.478211 -4.776494 0.174803
4.996334 0.191438 2.085624
-3.264525 3.787199 3.188599
4.735866 -1.603613 7.332301
-4.979724 0.449837 7.570755
4.554416 2.063322 7.252261
-4.832054 1.285012 6.423564
-2.853308 -4.105927 0.878333
-2.591333 4.276095 0.141932
-4.712417 -1.671265 1.125287
3.361975 3.700962 9.400912
0.002553 4.999999 8.400741
-4.181779 2.740935 6.749726
-0.396877 -4.984224 8.556918
-4.655410 -1.824049 1.480093
4.980105 0.445597 8.082466
-2.012082 -4.577284 9.819430
-4.974693 0.502424 8.524027
-0.066504 4.999558 4.235825
-4.672722 1.779234 9.327790
4.980261 0.443843 3.917017
3.463861 -3.605783 8.612318
0.688792 -4.952329 5.629697
-4.461798 -2.256626 7.700225
1.057409 4.886910 3.196258
-1.239716 4.843873 3.689429
-1.023015 4.894225 9.580281
0.500249 4.974912 7.784679
-4.965828 0.583565 0.398534
-4.869884 1.133240 3.682901
-0.570865 4.967304 8.195216
-4.996774 -0.179592 7.291137
-4.987256 0.356763 8.419417
4.274093 -2.594635 1.118666
-0.820288 -4.932254 4.213302
3.585485 3.484867 8.697003
3.935091 -3.084649 0.998698
4.997146 0.168907 8.039992
-2.504992 4.327241 3.826662
-1.427989 4.791748 6.519462
-4.611969 -1.931254 8.363753
2.140214 4.518792 5.630383
-0.252824 4.993604 5.627175
3.091059 -3.930058 7.369162
-3.021076 -3.984106 5.004324
-3.547044 3.523986 8.437415
3.124564 -3.903473 8.697167
-4.952086 0.690541 8.656979
-0.136738 -4.998130 5.337553
4.932130 0.821030 5.237178
-4.878036 -1.097617 8.479618
2.248377 -4.465960 2.730206
4.253092 2.628918 9.289877
4.991421 -0.292769 4.328557
-1.055881 -4.887240 5.374346
-2.435581 -4.366686 2.827753
1.589263 -4.740701 8.865276
-0.309147 -4.990434 9.996262
3.226545 3.819609 1.049609
3.207819 -3.835348 6.391723
4.166204 2.764551 0.234241
-4.913818 0.924334 4.029484
-2.729879 -4.189004 5.993761
-4.717630 -1.656492 7.377256
3.582529 -3.487906 0.495604
3.534295 3.536773 4.710900
-2.279014 -4.450404 7.257984
2.212535 4.483825 5.751650
-3.471889 3.598053 3.713526
4.377033 2.416936 8.127996
4.048536 -2.934171 1.088662
-1.792094 4.667804 6.731336
4.947542 -0.722377 9.769214
-2.404686 4.383775 2.467025
4.482632 -2.214952 8.552397
-2.168992 -4.505050 6.471030
4.818682 -1.334279 0.354253
4.560576 2.049670 1.552928
-3.973262 3.035323 6.813272
2.143818 4.517084 8.158360
-2.081648 -4.546069 0.677856
4.555255 -2.061469 8.825646
4.998040 -0.139988 6.439714
-3.805971 3.242621 5.828822
4.983215 -0.409347 3.181869
-4.980226 -0.444236 4.930185
-4.217504 -2.685639 9.661470
4.375101 -2.420431 1.827190
-3.861555 3.176223 2.790571
-1.871170 4.636671 1.617159
4.428348 2.321580 7.583072
4.328869 2.502177 0.482073
-2.641356 -4.245378 6.146338
3.235945 -3.811648 3.779043
-2.465961 4.349602 4.968465
-4.916406 -0.910468 9.057289
2.322625 4.427800 5.534759
-4.834508 1.275750 1.545245
-4.187366 -2.732392 9.548550
3.000377 -3.999717 4.048154
1.444549 4.786781 9.042559
4.461648 -2.256922 8.155337
-1.077628 4.882491 3.132659
-4.592531 1.977033 1.548346
3.670107 3.395631 0.838511
3.825597 3.219442 0.222983
3.298131 3.757969 5.393514
-3.558474 -3.512444 8.976638
0.621744 -4.961193 1.337244
-2.867335 -4.096144 1.943218
1.493529 -4.771726 9.633691
-4.954596 -0.672290 4.460872
4.707672 -1.684586 2.328284
-3.729460 3.330334 6.733063
-4.847467 1.225585 3.265107
4.729147 -1.623319 6.742049
2.666278 4.229771 6.680435
2.257147 4.461534 3.487574
-0.026690 -4.999929 8.549451
4.380158 -2.411268 4.075945
4.668897 1.789247 3.034923
4.996021 -0.199440 8.728233
1.487592 4.773580 3.056204
-2.714049 -4.199278 1.222918
-4.754932 1.546163 3.789623
-2.912483 -4.064166 7.919328
-4.991756 0.287003 6.910606
-2.590537 -4.276578 9.310630
4.856524 -1.189190 9.381733
-0.451647 -4.979560 4.604008
2.141856 -4.518014 8.286651
2.067043 4.552728 0.799913
4.156238 2.779511 9.979296
-3.040396 3.969382 4.977106
-4.838026 1.262340 4.378400
-3.440113 -3.628446 6.851057
3.348903 3.712795 7.531841
4.991244 0.295770 3.363093
-2.818034 -4.130216 3.981572
-4.921029 0.885139 7.756949
-1.512706 4.765681 8.779290
-4.874029 1.115275 7.056939
-4.647572 -1.843929 2.084223
-4.242264 -2.646356 0.462622
-4.999997 0.005390 7.938361
-1.833697 4.651618 2.271204
4.901626 0.986944 0.929018
-0.968671 4.905270 7.192421
-3.439549 -3.628981 5.758771
-4.741880 1.585741 2.949140
0.436605 4.980901 5.042440
2.336498 -4.420495 5.926781
-4.295291 -2.559390 1.135920
2.185375 -4.497125 4.865050
3.990256 -3.012948 9.914867
-4.100548 -2.861032 7.300948
-4.797400 -1.408882 3.414854
2.775517 4.158907 2.384918
4.878442 -1.095812 8.836188
4.508336 -2.162154 3.058609
-3.519951 -3.551048 6.234479
3.404412 3.661964 6.374964
-2.002788 4.581358 8.965585
-4.499458 2.180569 2.037708
4.775513 1.481376 4.292326
-3.302981 3.753707 3.321677
4.997223 0.166624 3.484860
3.417780 3.649491 8.682159
4.957850 0.647860 2.440730
4.998371 0.127612 5.846793
4.322041 2.513954 5.874671
-0.168572 4.997158 7.462770
4.911588 -0.936111 6.501342
-4.541592 -2.091397 6.744058
-0.988305 4.901352 9.245738
-3.420831 3.646630 3.545953
-4.937540 0.787843 7.084347
3.333218 3.726883 7.601576
0.150537 -4.997733 2.115583
-1.279745 4.833451 1.709642
-0.514334 4.973476 1.320216
0.191887 -4.996317 3.440808
1.357378 4.812227 8.096591
-0.425160 -4.981891 3.886013
0.851443 4.926971 5.736535
2.443981 4.361990 6.871490
-0.955309 4.907890 5.329926
4.829461 -1.294721 8.912695
2.483732 4.339479 5.333284
-1.839447 -4.649348 2.457398
4.824449 1.313274 5.027956
0.190610 -4.996365 3.347704
4.068993 2.905734 4.376955
-1.715326 4.696558 0.463962
2.944701 4.040883 4.831863
-3.387596 3.677525 5.718644
3.501800 3.568949 7.254266
4.999331 0.081798 8.660933
0.929413 4.912860 9.503680
-3.936312 3.083091 8.197522
4.800293 -1.398993 4.769080
0.577786 4.966504 4.308899
-4.828687 1.297606 1.311590
-2.977610 4.016695 5.276663
3.272886 -3.779975 2.218710
4.998041 0.139951 2.100898
-3.363116 3.699926 1.582365
-3.274454 -3.778618 3.434759
-4.616201 -1.921117 7.928113
-3.780378 -3.272421 9.978764
4.948886 0.713114 4.612833
4.317429 2.521866 7.244611
-1.492186 4.772146 0.969165
3.180761 -3.857818 5.296080
2.498899 4.330762 3.899613
4.974246 0.506829 3.091157
-4.441401 2.296510 7.953313
4.154588 -2.781977 7.071478
4.432293 -2.314040 7.732737
-1.648455 4.720445 2.309523
-2.711586 -4.200869 6.575024
-2.920575 -4.058354 7.865735
-1.077176 -4.882591 4.914758
2.519295 -4.318930 2.688479
-2.344527 4.416242 7.484479
4.797547 1.408385 7.250654
1.442509 -4.787397 9.686925
4.574637 2.018092 9.072532
-4.766973 -1.508632 8.817400
4.747910 -1.567593 0.077518
-4.980512 0.441025 3.117631
4.467729 2.244861 4.249096
4.999975 -0.015948 5.078536
1.099886 -4.877525 9.584052
-3.966826 -3.043730 8.252165
-3.559893 -3.511006 6.830427
-2.620486 -4.258292 2.183758
1.169675 -4.861261 4.150053
-3.503663 -3.567120 6.305750
-4.998904 -0.104673 6.277241
3.767371 -3.287388 5.527767
-4.898759 -1.001079 0.244248
-3.966774 -3.043797 3.713807
4.558275 -2.054783 5.895531
-4.440755 2.297760 2.187362
1.891189 4.628542 7.316758
3.743772 3.314238 3.223360
-4.939157 0.777641 8.621927
4.662794 -1.805091 4.300717
-4.303149 2.546156 1.734200
-4.244578 -2.642643 6.249279
3.055140 -3.958045 7.973032
2.858984 4.101976 8.042297
-4.933534 -0.812554 0.876970
-1.958986 4.600258 1.728467
-4.318994 2.519185 7.107072
3.330879 3.728974 9.839649
0.477577 4.977140 3.768681
-3.938208 -3.080668 1.388046
3.376273 3.687924 4.444122
-0.718715 -4.948075 2.450002
4.734285 1.608274 5.670499
-4.999406 -0.077077 3.584207
2.133725 4.521860 6.815531
-1.139804 -4.868352 8.806346
-1.418848 -4.794463 9.927243
-4.600801 1.957711 4.704123
-3.834912 3.208341 0.002728
3.539855 3.531207 3.134424
3.970267 3.039240 4.044478
3.829721 3.214535 6.445742
2.811219 4.134858 9.951419
2.962826 4.027613 7.393089
3.658307 -3.408341 9.981031
4.987109 -0.358807 4.078291
-4.822935 1.318826 3.947610
0.291638 -4.991487 2.018819
-0.629159 -4.960258 1.445624
-4.927968 -0.845652 7.844209
1.058632 4.886645 7.794725
4.957412 -0.651206 5.660231
-2.502727 -4.328551 2.158148
-3.342252 3.718783 3.126703
3.260250 3.790880 2.069416
-0.843929 4.928264 9.312767
4.235104 -2.657799 2.351977
-0.847808 -4.927598 3.708086
-4.234680 2.658474 5.562608
-4.222476 2.677816 5.804152
2.412409 4.379530 5.648572
4.701001 -1.703112 8.500514
-4.835107 1.273477 8.186888
0.834950 -4.929793 6.955775
0.416889 -4.982590 5.015819
2.638839 4.246943 4.330349
-2.511804 4.323290 3.582510
3.633775 3.434484 6.361609
-1.396014 -4.801161 0.867549
4.767132 -1.508128 9.875282
2.237206 4.471567 1.098799
3.519005 -3.551986 2.769638
-1.858461 4.641780 1.154738
0.659430 -4.956324 8.114202
4.542854 -2.088654 1.030054
-1.458214 -4.782637 7.511855
0.636578 4.959311 9.696408
4.262415 -2.613775 3.673443
-4.027776 -2.962603 6.379622
4.753870 -1.549426 1.910747
1.198616 4.854206 1.573157
-3.026267 3.980164 5.404991
0.602875 -4.963521 8.107802
-4.790129 -1.433409 9.185281
3.569119 3.501627 4.127984
2.124720 -4.526098 2.907210
-2.846682 4.110524 7.922833
-4.157811 2.777158 2.125497
-3.402871 -3.663396 6.134204
-4.102847 2.857735 9.995401
3.844237 3.197161 6.145085
-3.620743 -3.448220 2.648917
-4.101547 2.859600 7.648009
-4.930874 -0.828544 9.981600
4.583625 -1.997594 9.853768
-2.132868 4.522264 5.137031
-2.326528 -4.425750 8.588664
-1.593855 -4.739159 4.994283
3.102279 3.921207 5.587715
4.585122 1.994155 6.649417
-3.376519 3.687699 9.500621
1.159185 -4.863773 0.324955
-3.559042 -3.511868 7.171277
-3.938243 3.080624 5.734198
3.425241 3.642488 1.902488
-2.818025 -4.130222 6.477952
-4.404772 2.366006 1.736623
3.884254 3.148424 7.850406
-1.966099 -4.597222 0.063165
4.755178 -1.545406 7.907904
3.394024 -3.671594 6.017454
-1.427320 4.791947 0.110736
-1.570165 -4.747060 1.937235
-4.544922 2.084150 1.302876
-4.840943 -1.251107 3.699844
-4.996441 0.188614 8.450379
3.840777 -3.201317 2.445841
4.392271 2.389133 2.087075
4.999759 -0.049123 1.497358
-1.174858 4.860011 4.769530
-2.616608 -4.260677 4.144520
3.980992 -3.025178 4.934943
0.764464 4.941214 7.061634
4.924934 0.863146 0.710051
0.008885 4.999992 6.668449
-0.985685 4.901880 8.979839
-4.881367 -1.082708 7.104083
3.436075 3.632271 5.844497
2.463804 -4.350824 7.938156
-4.918110 -0.901218 0.426984
4.397644 -2.379228 5.697338
0.166188 4.997237 7.910517
4.953710 0.678788 5.023786
-0.787627 4.937575 3.415569
-4.259892 -2.617884 6.458852
4.645365 -1.849482 7.068480
-0.350086 -4.987729 9.538241
4.769518 -1.500565 2.239111
1.759564 -4.680164 0.267645
-4.932003 0.821796 7.211711
2.190251 -4.494753 4.859668
0.701021 4.950613 6.654194
4.646784 1.845915 6.252948
-1.244553 4.842632 0.225038
0.144769 -4.997904 4.162399
4.853776 1.200360 4.961640
4.670450 -1.785187 6.751199
1.624829 4.728629 3.237523
2.629568 -4.252690 0.441157
-2.011580 4.577504 9.901781
3.563096 -3.507756 7.324948
4.990937 -0.300918 1.482927
-3.082611 -3.936688 7.374412
-4.438424 -2.302259 3.230417
4.861981 -1.166679 5.438503
4.663760 1.802594 6.285220
2.862344 -4.099632 1.892931
3.080704 -3.938180 3.879363
-2.496084 4.332386 1.601083
-4.075844 -2.896118 1.275463
4.989456 -0.324542 5.776100
1.563429 -4.749283 1.509797
4.992570 0.272485 2.210436
-2.477296 4.343156 2.479275
-3.937387 -3.081717 3.917619
4.952797 0.685421 5.385154
1.405956 4.798259 3.221109
0.447979 4.979891 0.329758
4.778294 1.472382 4.083520
-0.360882 -4.986959 9.015214
3.532994 -3.538072 5.941000
-0.504963 4.974436 5.749753
3.667275 -3.398691 4.343295
2.177211 -4.501083 0.629161
2.118664 4.528936 5.875149
-2.833849 -4.119381 2.684866
-4.318037 2.520824 4.666227
1.061889 -4.885938 6.861627
3.763457 -3.291867 4.407979
1.867828 4.638019 2.111528
-0.814462 4.933219 0.399986
2.299011 -4.440107 1.921782
2.026141 -4.571078 5.661781
-0.643575 -4.958408 4.045158
3.143554 3.888196 5.868799
-0.491799 -4.975755 8.135082
4.999931 -0.026221 2.076894
-0.269065 4.992755 1.313558
-4.693733 1.723041 1.747865
3.064567 3.950751 7.964108
-3.022900 -3.982722 2.941889
-4.161344 2.771861 7.778004
4.969645 0.550116 1.175262
-4.976298 0.486272 5.031981
-4.308474 2.537134 8.210390
-1.930663 -4.612216 4.814826
4.993300 -0.258757 0.100080
1.894648 -4.627128 8.476475
2.284592 4.447543 3.031390
4.160406 -2.773269 2.422260
4.869822 -1.133505 3.842517
2.673000 4.225526 0.250895
1.792586 -4.667616 9.346107
1.795096 4.666651 0.188621
0.016835 4.999972 3.158700
-4.954150 -0.675571 2.784603
4.778141 1.472878 6.374802
4.008226 2.989001 8.018796
-4.776676 1.477620 6.734728
-4.838913 1.258936 7.814895
-1.020513 4.894748 1.989983
-1.732579 4.690221 1.219297
0.253701 -4.993559 8.695323
-4.488917 -2.202186 7.160275
4.370411 -2.428890 2.619106
4.999842 0.039745 0.629430
-4.046117 -2.937505 9.122699
0.623582 -4.960962 6.869268
0.165836 -4.997249 6.584010
-4.969808 -0.548646 7.828034
-1.464130 -4.780829 7.973754
4.840942 1.251110 8.633556
-0.340971 -4.988360 8.620013
3.523746 3.547283 8.026643
-2.471473 4.346473 8.772756
-2.189873 -4.494937 1.917669
2.907589 -4.067669 0.522742
2.478142 4.342673 3.900693
-2.770563 -4.162209 4.499316
-4.915013 -0.917960 5.868866
-1.089654 4.879821 0.835213
4.966475 -0.578035 0.574925
4.767855 -1.505842 7.062893
2.383790 4.395173 3.948336
-4.459775 -2.260621 4.558907
3.941614 3.076309 6.765419
3.406980 -3.659575 4.906583
2.849367 -4.108662 7.887649
4.217479 2.685678 3.109824
1.610094 4.733666 9.183758
-1.951942 -4.603251 2.484616
-4.952021 0.691007 2.180414
-2.072651 4.550178 2.353202
-1.475813 4.777235 2.463934
-2.556162 4.297212 4.684877
4.898058 1.004502 3.660128
-4.938507 -0.781762 8.796272
-1.571272 4.746694 5.750483
4.928956 -0.839874 9.469328
-3.406713 3.659824 7.109840
-4.999993 0.008557 6.553132
3.755101 -3.301396 6.920220
-2.414344 4.378463 2.837185
0.869815 4.923761 3.782862
-4.342586 2.478296 5.507129
-4.502347 2.174596 2.857082
-2.285985 4.446827 5.844448
1.059868 -4.886377 4.408740
-4.978034 0.468160 1.557911
0.562892 4.968214 5.798568
-2.631263 4.251641 2.437698
-3.023839 3.982009 4.990897
-4.257967 -2.621014 4.423267
-3.684114 3.380429 0.215435
-0.708953 -4.949483 7.637924
4.394896 2.384301 9.976445
-3.862693 3.174840 8.522234
0.757265 -4.942322 8.576881
0.818175 -4.932605 4.069189
-0.612523 -4.962340 0.551099
3.760608 -3.295122 5.544631
-0.838539 -4.929184 9.593990
2.153652 -4.512403 5.281496
4.989037 -0.330923 4.081518
2.308479 -4.435192 3.052533
4.166121 2.764676 7.573553
-4.530467 2.115389 1.425909
3.761683 -3.293894 8.779006
4.999057 0.097115 9.144138
2.961220 -4.028794 6.775515
3.269232 3.783136 9.369774
-3.119331 3.907656 7.297759
0.979329 4.903153 0.269615
1.163293 -4.862792 0.117751
4.949755 -0.707056 8.456762
-2.961349 4.028699 0.795450
4.858092 1.182768 1.570661
4.393554 -2.386773 7.701518
4.997310 0.164001 5.564416
-4.994203 0.240692 5.750851
-4.998007 -0.141172 5.221434
2.998703 -4.000972 1.207055
4.520318 -2.136990 9.367949
-3.342370 3.718678 6.896477
-3.203862 -3.838654 5.796179
-1.373303 -4.807706 2.277382
-3.471239 3.598680 9.277800
-4.818320 -1.335585 2.286189
-2.102515 4.536456 9.471720
4.784815 1.451051 8.539011
4.386928 -2.398929 6.251869
4.458928 -2.262292 3.979288
4.958567 0.642352 7.953357
-0.099378 -4.999012 1.130245
-4.973823 -0.510965 0.964780
4.831061 -1.288738 0.333845
-3.722677 3.337915 5.183919
1.941032 -4.607862 4.154124
4.803287 1.388681 1.515109
1.355029 4.812889 6.853923
3.620848 3.448109 1.924990
0.014014 4.999980 5.523030
-3.546608 -3.524425 3.223191
-4.451686 -2.276509 5.740826
-4.998692 -0.114379 9.652587
1.897845 -4.625817 5.722226
2.758825 -4.169998 7.522358
4.332536 2.495823 2.870395
2.926268 4.054252 2.376488
-2.106770 4.534481 7.463692
-4.783651 1.454881 7.076140
-1.391785 -4.802389 3.970308
3.987895 -3.016073 7.566948
3.604184 3.465525 3.754620
-4.026982 2.963683 7.748530
2.983349 -4.012434 5.151348
-4.564127 -2.041751 9.971812
1.080569 4.881841 2.850684
3.043013 3.967376 4.582163
-4.246937 2.638850 4.432354
4.912037 0.933749 7.483671
4.676969 1.768038 7.976102
4.446331 2.286950 1.727582
4.103619 -2.856625 5.350140
-4.711481 1.673901 8.871275
-2.358157 4.408979 3.844839
-4.246744 -2.639161 8.471171
1.121083 -4.872697 0.539720
-1.337877 -4.817685 5.063714
2.742726 4.180605 3.575338
1.136485 4.869127 9.617377
4.625308 1.899085 6.699848
0.724653 -4.947209 2.762824
-3.130948 3.898354 3.575835
-3.049554 -3.962350 7.434623
0.406494 4.983449 1.203213
-0.054728 4.999700 9.554800
2.365336 -4.405132 4.586124
0.322993 -4.989557 0.362623
-4.696302 1.716026 9.777006
4.974286 -0.506441 0.033511
4.984179 -0.397441 0.863686
-0.468942 4.977961 6.664909
-4.235277 2.657524 7.956740
-3.568570 -3.502186 4.147053
-4.971323 0.534740 9.244841
-4.489088 2.201838 4.238971
3.573125 -3.497539 6.209570
-1.111370 4.874921 9.910360
4.514196 -2.149893 8.944350
2.705821 4.204585 7.275705
-0.368630 4.986393 9.638666
-4.248678 -2.636046 7.688930
3.278778 3.774867 4.310178
-4.900616 0.991948 4.159352
3.712517 -3.349212 2.778493
4.998341 -0.128795 7.132820
-1.781445 -4.671879 3.607160
-4.687740 -1.739281 8.792934
-3.365540 3.697721 7.346334
3.510298 -3.560591 1.877973
4.097682 -2.865135 2.710188
-3.537193 -3.533874 0.736941
-4.776205 -1.479143 3.793475
1.824788 -4.655121 5.089038
4.846961 1.227587 9.602637
2.545219 4.303703 2.234272
2.704038 4.205731 6.169382
-4.979486 0.452456 5.613318
-1.812602 -4.659879 9.999701
0.719242 4.947999 2.275426
-4.975884 -0.490491 0.881429
-3.769954 3.284425 3.238686
4.735978 1.603283 5.103878
-1.912525 -4.619767 5.856416
0.260025 -4.993234 4.622919
4.958731 0.641083 6.271876
-4.983131 -0.410370 4.692110
4.883672 1.072263 4.482014
4.627359 1.894083 4.224299
4.690579 -1.731610 9.745060
-3.985265 3.019547 8.677725
-4.904169 0.974233 9.074253
4.582342 2.000536 5.352205
4.462160 -2.255911 2.056909
4.966864 0.574686 4.856802
0.365717 -4.986607 3.354692
-2.553154 4.299000 5.935109
-2.986064 4.010414 2.732743
-3.171425 -3.865497 8.697673
3.193435 3.847333 8.095626
-4.972806 0.520771 2.864699
-3.928816 -3.092637 1.479417
2.766172 4.165128 9.127672
-4.787311 -1.442792 3.578989
-4.851862 1.208069 1.094085
-1.204890 -4.852653 1.561932
3.383494 -3.681300 6.304948
1.397552 4.800713 3.593481
2.516115 -4.320783 6.572691
3.351362 -3.710576 6.488695
-4.804570 -1.384234 9.462407
1.287917 4.831280 6.217499
4.118413 2.835255 9.302392
-3.347486 -3.714073 4.922518
-1.610101 4.733664 3.346091
-4.032811 2.955746 9.051199
-4.900959 -0.990255 7.078152
-4.342383 2.478651 2.582203
-4.986660 -0.365000 9.596839
4.756342 1.541819 9.489536
-3.743798 -3.314209 6.354696
4.417190 -2.342740 6.226104
3.903734 -3.124237 0.182642
-3.400664 -3.665445 7.754513
-2.967916 4.023863 4.122523
4.997531 -0.157099 9.804709
-4.604038 -1.950086 1.782618
-2.240954 -4.469689 7.320058
4.979555 -0.451694 1.938238
0.056953 4.999676 4.072821
-0.861889 4.925155 0.843353
1.664970 -4.714645 5.056877
-0.459136 4.978875 5.933728
-1.164311 -4.862549 3.614337
-0.333635 4.988856 6.498777
-4.812123 1.357747 2.548304
-3.490150 -3.580343 7.283488
3.581759 3.488696 5.999287
1.226135 -4.847329 5.307789
4.409948 -2.356344 0.579840
3.172169 3.864886 2.671973
-2.785957 -4.151920 9.869030
3.510656 -3.560238 5.100480
4.609575 1.936960 7.709992
-4.031579 2.957426 3.342666
-0.899541 -4.918417 9.459539
-1.262309 -4.838034 3.670127
4.195741 -2.719514 8.349223
-2.994746 -4.003935 7.223231
-3.180303 3.858196 1.572661
-3.964735 -3.046453 1.441795
-4.385589 -2.401376 1.022842
-1.452225 -4.784459 1.750968
4.561822 2.046894 4.751825
-4.966893 -0.574436 7.457535
4.249823 2.634199 4.681614
-4.207317 -2.701571 8.827199
4.357643 -2.451723 7.140778
4.489904 2.200174 5.760030
-3.698500 3.364684 9.222191
0.326042 -4.989358 9.602623
-4.068405 -2.906559 7.760882
-4.690463 1.731922 2.372352
4.992666 -0.270706 4.563086
4.288826 -2.570209 5.124774
1.052101 4.888055 7.389681
-4.101303 -2.859950 0.063287
4.086143 -2.881568 1.046442
3.596266 3.473740 0.328001
3.742853 3.315275 1.910419
3.152350 3.881068 3.158699
-1.036674 4.891350 5.978192
1.472329 4.778310 3.156467
4.858671 1.180387 1.784622
-1.598846 4.737477 7.185303
-4.406354 -2.363057 5.957034
3.548977 3.522039 9.789640
-4.214449 -2.690431 4.994254
-1.913138 4.619513 1.343050
0.395927 4.984300 9.984049
-4.782546 1.458510 2.460952
-4.670961 1.783852 2.188446
-1.644319 -4.721887 6.266461
2.597400 4.272413 5.839300
2.734049 -4.186284 3.675422
-2.733023 -4.186954 7.795848
-1.232227 -4.845783 8.238838
1.223659 4.847954 4.183519
-1.395731 4.801243 0.530569
-3.302562 -3.754075 5.011258
-2.968805 -4.023207 7.876217
-0.677840 -4.953840 2.041109
-4.952729 -0.685911 2.953466
-3.594557 -3.475508 9.767368
0.810441 4.933881 0.803786
4.945335 0.737332 7.032133
1.057491 -4.886892 1.336627
-2.436942 -4.365926 2.491772
4.999995 0.007168 9.336786
4.933019 0.815672 0.021521
0.111262 -4.998762 5.335874
-3.065944 3.949682 9.446866
3.124777 3.903302 5.605795
-2.039360 4.565196 4.433733
-4.971070 -0.537084 2.326137
4.993537 0.254146 1.323212
3.364100 3.699031 7.016302
-4.629233 -1.889498 4.523423
-4.922449 -0.877211 0.313545
-4.950919 -0.698855 1.487827
2.707771 -4.203329 2.564524
-4.779638 -1.468014 7.916152
-0.069253 4.999520 2.827413
-2.454580 -4.356035 1.204285
4.995383 0.214834 2.298126
2.071076 -4.550895 6.321646
2.896561 -4.075528 5.733803
3.481630 -3.588628 3.175316
3.776352 -3.277066 1.538346
4.837495 -1.264373 8.712054
3.019817 3.985060 7.824648
-3.338863 3.721827 6.494320
-4.308396 -2.537268 0.432313
3.350396 -3.711448 6.467345
3.503726 -3.567058 3.668197
-2.639134 -4.246760 6.003307
0.615002 4.962033 7.133409
-3.823337 -3.222126 2.997089
4.269548 -2.602107 0.697501
3.127097 -3.901444 7.310429
3.770358 3.283962 4.149745
-1.127953 -4.871111 1.915323
-3.379643 3.684836 5.643185
-4.668874 1.789307 5.562582
0.993779 -4.900245 4.092967
-1.117922 -4.873423 6.533090
-2.092481 -4.541093 7.215091
2.414848 -4.378185 4.452690
2.197056 4.491430 7.552033
4.981100 0.434327 6.584439
-4.993907 -0.246767 6.854278
0.391623 4.984640 3.334686
4.429200 -2.319954 1.235642
-3.516025 3.554936 6.427235
4.763192 -1.520526 1.784895
-1.429264 -4.791368 2.598265
-4.590446 -1.981868 0.478693
-4.891360 -1.036628 4.108484
4.624620 1.900761 8.552312
1.208073 -4.851861 9.519095
-4.778301 1.472359 7.366442
2.307395 -4.435756 4.886323
1.873045 4.635914 1.272707
2.978496 -4.016038 5.147592
4.854223 -1.198547 0.770955
-4.892998 -1.028867 0.985833
0.531238 4.971699 7.823317
-2.765384 4.165651 0.480592
-0.923627 4.913951 6.078601
-4.998599 0.118350 7.647390
-3.447432 -3.621493 5.938089
2.557636 -4.296335 7.074255
-3.582327 3.488113 5.739215
-4.914309 0.921721 7.410690
3.483483 3.586829 5.735857
-4.529555 -2.117341 3.188571
-4.645126 1.850082 0.093255
-4.437255 -2.304511 1.426234
0.360161 -4.987012 6.651178
-1.814321 -4.659210 1.299729
-0.319589 4.989776 3.925951
1.248684 4.841569 4.848484
-3.515180 3.555771 1.261848
1.557572 4.751207 7.818091
-3.334621 3.725627 4.602250
0.703415 -4.950273 4.157503
0.120168 -4.998556 8.578176
4.882393 -1.078073 0.267714
-4.953731 -0.678634 8.270278
4.674972 -1.773312 8.263097
2.945551 -4.040263 9.735837
1.975175 -4.593331 7.653877
2.788550 4.150179 9.547237
-1.058579 -4.886656 7.434354
-4.297765 -2.555233 3.622256
-3.175106 -3.862473 0.626712
4.738967 1.594427 7.147431
2.738643 4.183281 3.532947
-2.576954 -4.284777 4.073967
-3.592690 3.477438 2.743543
3.552847 3.518135 3.729463
-4.967119 0.572476 7.256551
3.104862 -3.919162 1.332937
-4.916179 -0.911692 4.892697
-4.937020 0.791099 6.786603
1.977941 4.592140 3.554916
-4.909777 0.945564 4.997316
2.455289 -4.355635 0.538256
2.390602 4.391471 2.844659
-1.283676 4.832409 7.870156
-2.723421 4.193206 7.220995
4.215063 2.689469 7.025826
-3.477950 3.592195 0.809091
-4.940232 -0.770782 9.635790
2.075448 4.548903 5.997639
-4.812593 -1.356079 0.965816
1.463198 -4.781114 9.360592
4.980553 -0.440558 1.310305
-2.732766 4.187122 2.831079
4.180741 -2.742518 2.647032
-4.834130 1.277179 4.637497
-4.568134 -2.032769 3.270914
4.877580 1.099644 9.069365
-3.942685 -3.074937 0.499419
0.113773 4.998705 9.845747
4.999991 0.009449 1.979530
-3.234817 3.812605 4.377331
4.987800 -0.349068 0.128209
-4.961207 0.621632 2.716730
2.071245 4.550818 1.648043
4.761092 1.527089 7.447852
0.009214 -4.999992 7.266009
1.406701 -4.798041 4.135140
-2.361179 4.407361 1.706026
-4.999970 -0.017212 8.901572
0.318208 -4.989864 7.182111
-3.924610 3.097973 7.640723
-4.724233 1.637566 8.425088
2.671750 4.226317 0.630568
-1.511450 4.766080 0.836522
-3.056922 -3.956668 4.455895
2.407214 -4.382388 1.859463
0.012619 4.999984 8.728465
-1.738645 -4.687976 7.278899
-1.835144 4.651048 6.239582
-4.977650 0.472227 7.033827
-4.961967 -0.615535 9.780993
-0.872927 -4.923210 2.206226
-4.999198 -0.089571 5.944887
4.524513 -2.128094 6.217539
0.859609 4.925553 2.791690
4.039910 2.946036 5.677809
4.245677 2.640877 2.453881
0.614307 -4.962119 0.412214
-3.284360 -3.770011 2.472292
-4.401027 2.372965 3.325641
-4.887920 1.052730 9.148181
4.461801 2.256620 7.791264
-0.642550 4.958541 5.418338
-4.979372 -0.453711 2.059314
-4.216891 2.686602 4.272507
-1.700069 4.702102 4.813557
3.750929 -3.306135 7.826466
-4.983601 0.404623 0.831153
2.309050 -4.434894 2.319850
-4.892403 1.031692 4.370328
-1.683834 4.707941 2.505099
-1.472845 -4.778151 4.395746
0.711121 4.949172 5.078333
1.639346 -4.723616 8.086609
-4.922094 0.879200 8.923636
-4.936515 -0.794243 0.184439
3.580099 -3.490400 4.104332
-2.610169 -4.264624 1.474270
2.763212 -4.167093 4.138136
-1.743659 4.686113 7.713466
4.380326 -2.410964 3.545145
3.262846 3.788646 8.261135
-2.605353 4.267568 8.189719
4.357385 2.452182 2.080575
-4.524023 2.129135 5.944592
-4.983042 -0.411449 1.379946
-3.926540 -3.095526 2.130217
0.353975 -4.987454 9.177455
1.675158 4.711034 2.003355
4.880518 -1.086529 5.405729
-4.888163 -1.051598 7.580131
4.362576 -2.442934 1.536249
0.026135 -4.999932 9.482662
3.697316 -3.365984 3.002569
-2.834441 -4.118974 7.829266
4.961541 0.618961 9.302328
-1.317054 -4.823419 7.496470
