29.399896 0.000000 -5.179006
17.645280 0.000000 -1.339038
15.017677 0.000000 -0.751784
25.155008 0.000000 -4.214653
22.739079 0.000000 5.790640
24.665945 0.000000 -6.436834
24.948102 0.000000 -3.330901
24.273073 0.000000 2.871646
15.261475 0.000000 -9.522285
14.852559 0.000000 -5.272874
29.907312 0.000000 0.577415
25.456130 0.000000 3.045328
13.738422 0.000000 1.355094
11.574507 0.000000 -9.100529
11.054620 0.000000 9.867648
22.693275 0.000000 9.962369
21.313767 0.000000 3.316671
11.630111 0.000000 -7.244146
21.442820 0.000000 -0.239295
29.422362 0.000000 -1.481852
23.964926 0.000000 6.230770
10.496461 0.000000 1.590928
14.618343 0.000000 -2.865198
13.629852 0.000000 -4.324970
15.816016 0.000000 4.103129
23.480461 0.000000 3.782715
19.102460 0.000000 5.277089
27.689216 0.000000 1.536584
27.193340 0.000000 -3.177888
24.306083 0.000000 9.913507
16.534897 0.000000 -2.094730
12.806316 0.000000 3.609739
29.626406 0.000000 6.468090
20.870230 0.000000 -4.128933
16.735419 0.000000 5.368510
16.808727 0.000000 1.151455
10.508579 0.000000 -0.343151
13.684387 0.000000 -2.637233
28.860978 0.000000 -3.342955
29.534410 0.000000 -0.251561
27.770051 0.000000 1.347206
27.880590 0.000000 -1.427954
23.710951 0.000000 0.688472
24.502848 0.000000 1.261859
13.218085 0.000000 8.535620
14.652673 0.000000 -1.972173
29.308517 0.000000 -8.523730
26.669438 0.000000 9.886306
10.912133 0.000000 5.546149
21.641037 0.000000 5.168875
24.129694 0.000000 -9.099880
17.857041 0.000000 -3.329685
16.059694 0.000000 -2.639760
29.805647 0.000000 7.676780
15.601793 0.000000 7.002115
26.758540 0.000000 8.283880
21.125447 0.000000 -3.370654
27.747332 0.000000 4.739723
10.887025 0.000000 -6.190754
18.355928 0.000000 -8.020507
15.291418 0.000000 -5.626266
15.371861 0.000000 -1.107242
12.904268 0.000000 2.090769
20.139526 0.000000 -1.752317
22.816825 0.000000 -2.708070
18.378763 0.000000 0.271680
15.109641 0.000000 -1.134868
10.623339 0.000000 -1.833232
13.618720 0.000000 1.716468
20.164172 0.000000 -3.611342
16.003616 0.000000 -0.197128
11.535642 0.000000 0.288684
20.189039 0.000000 -6.797378
26.601761 0.000000 -1.997787
20.736300 0.000000 -3.333709
12.186383 0.000000 6.458056
19.896734 0.000000 -1.081208
14.294040 0.000000 5.480282
10.988032 0.000000 4.892835
29.876037 0.000000 -9.615686
24.813558 0.000000 0.681841
29.692878 0.000000 5.273720
13.045435 0.000000 -7.845509
11.825763 0.000000 -6.821699
12.950525 0.000000 -7.454929
27.252193 0.000000 -1.035140
27.266941 0.000000 -4.717726
26.576785 0.000000 -2.591918
18.118945 0.000000 -5.809790
25.947654 0.000000 -8.790738
18.775389 0.000000 2.267510
14.112626 0.000000 9.726640
29.075406 0.000000 5.143723
10.591575 0.000000 1.895768
26.587706 0.000000 4.337470
22.722608 0.000000 -7.784108
14.075397 0.000000 9.380960
21.247381 0.000000 -5.234684
28.643619 0.000000 -7.528645
25.982395 0.000000 4.336369
18.895346 0.000000 3.795382
23.436154 0.000000 -6.374992
21.366507 0.000000 5.763458
26.277298 0.000000 -8.833989
12.410352 0.000000 -2.787803
19.710452 0.000000 -7.176212
13.633319 0.000000 -1.591178
11.944074 0.000000 -2.527645
25.794181 0.000000 -3.351632
26.719068 0.000000 -7.116574
26.004380 0.000000 -7.043607
18.304332 0.000000 9.875732
24.090071 0.000000 6.151157
20.934622 0.000000 8.559379
29.290615 0.000000 1.376898
25.761543 0.000000 -8.766801
17.608961 0.000000 2.527847
23.881188 0.000000 -2.673572
21.563878 0.000000 2.095835
13.461326 0.000000 9.899744
12.930857 0.000000 -4.643622
17.795989 0.000000 1.685991
12.227640 0.000000 -5.656089
26.319322 0.000000 -0.916564
13.885200 0.000000 3.251264
20.935334 0.000000 -7.234690
22.924524 0.000000 -3.665271
20.637946 0.000000 -9.795914
24.182641 0.000000 6.028184
10.765897 0.000000 -5.213313
13.374729 0.000000 -7.960631
12.437368 0.000000 -0.017995
17.624232 0.000000 2.947779
15.314527 0.000000 -5.549015
10.953579 0.000000 0.819009
21.799364 0.000000 -1.558874
26.067561 0.000000 2.801345
15.418446 0.000000 8.394170
10.242016 0.000000 -1.510157
11.662305 0.000000 -8.706367
10.868474 0.000000 9.933899
28.302732 0.000000 -9.794689
19.563713 0.000000 6.080614
29.509378 0.000000 8.513737
22.625962 0.000000 -4.502316
28.026732 0.000000 5.285715
29.435737 0.000000 7.367498
29.319808 0.000000 -3.551669
15.208419 0.000000 5.412062
14.593219 0.000000 -2.152316
10.206623 0.000000 8.261554
22.510840 0.000000 7.711223
11.711319 0.000000 8.583824
26.815739 0.000000 -2.413009
28.479325 0.000000 0.906592
29.683470 0.000000 7.939750
29.107438 0.000000 -6.567133
28.734806 0.000000 -0.225898
16.630719 0.000000 0.413895
21.237260 0.000000 -6.657466
16.251789 0.000000 1.708059
23.243389 0.000000 -7.607566
18.166645 0.000000 -4.378988
20.056750 0.000000 7.066503
23.750603 0.000000 -7.514452
22.915982 0.000000 4.973654
29.896520 0.000000 2.187324
15.403931 0.000000 8.040042
20.960959 0.000000 1.152563
24.385034 0.000000 -9.210446
15.870861 0.000000 6.241951
29.442512 0.000000 -9.961788
11.418195 0.000000 -7.231722
25.313898 0.000000 -6.455295
23.184403 0.000000 -8.712461
15.880112 0.000000 4.414139
13.721456 0.000000 -7.997901
27.183899 0.000000 -8.937036
23.036702 0.000000 -1.345593
20.146866 0.000000 3.530924
18.878178 0.000000 7.339273
28.939819 0.000000 -6.672439
16.806407 0.000000 0.695296
26.041902 0.000000 -3.371841
28.485484 0.000000 -0.130780
27.493034 0.000000 -3.402667
10.943073 0.000000 -4.758518
13.859771 0.000000 -2.643171
22.839674 0.000000 -5.050123
29.188559 0.000000 9.568492
10.727562 0.000000 -7.028164
16.584887 0.000000 -6.460212
22.787163 0.000000 5.441252
20.188114 0.000000 -9.269061
16.012660 0.000000 -6.676027
27.887004 0.000000 -9.359275
21.700742 0.000000 8.704361
26.178711 0.000000 9.516659
12.719700 0.000000 -5.636504
11.381796 0.000000 3.740470
22.348657 0.000000 -8.231356
28.670771 0.000000 8.432966
17.664828 0.000000 6.431619
26.455926 0.000000 5.383479
22.697595 0.000000 2.473129
14.394970 0.000000 -9.320348
10.217789 0.000000 0.310922
11.470110 0.000000 5.476814
16.438750 0.000000 0.597085
26.068698 0.000000 2.158187
28.022835 0.000000 -2.942692
15.988498 0.000000 2.557732
18.752563 0.000000 4.500771
18.808783 0.000000 -3.414889
29.738051 0.000000 2.676525
27.775234 0.000000 -3.963323
10.930559 0.000000 5.359774
24.421033 0.000000 -8.142515
27.981386 0.000000 -8.628494
19.275906 0.000000 -7.422149
16.126483 0.000000 9.832638
16.723255 0.000000 -5.133218
12.617032 0.000000 -9.304530
10.527537 0.000000 -1.621143
12.935928 0.000000 2.605085
21.780849 0.000000 -0.060303
15.930435 0.000000 -4.881359
14.178134 0.000000 3.932318
24.996034 0.000000 4.399246
25.228288 0.000000 5.081363
22.954592 0.000000 -1.971837
20.474442 0.000000 -5.369561
20.940156 0.000000 6.121190
18.992885 0.000000 0.145167
22.361188 0.000000 -8.750275
20.030259 0.000000 1.196427
17.584344 0.000000 3.730241
29.826054 0.000000 8.908976
15.376839 0.000000 9.945326
25.768877 0.000000 -8.817533
11.101396 0.000000 -4.961049
24.613328 0.000000 -4.529544
10.207928 0.000000 3.605207
11.332577 0.000000 -7.328984
18.645295 0.000000 -8.184749
21.232503 0.000000 -8.455094
29.531581 0.000000 0.756371
20.909032 0.000000 6.926146
29.916486 0.000000 0.944985
26.938755 0.000000 -7.612350
29.622328 0.000000 -3.411841
26.166377 0.000000 -0.414365
23.864738 0.000000 -1.591574
22.202968 0.000000 3.203714
28.878004 0.000000 3.008626
24.554500 0.000000 9.188979
27.351329 0.000000 4.620492
16.548537 0.000000 -5.042090
11.292466 0.000000 1.441716
14.913700 0.000000 -0.401297
21.630261 0.000000 6.732902
11.037989 0.000000 -5.474468
19.297265 0.000000 3.319979
27.694799 0.000000 -3.104764
11.165170 0.000000 6.701997
22.707043 0.000000 9.959034
13.468064 0.000000 5.029174
13.155686 0.000000 -8.451418
12.675355 0.000000 8.585955
12.449553 0.000000 5.056680
13.007387 0.000000 -0.452787
27.514502 0.000000 8.885519
13.043535 0.000000 -6.750879
17.220720 0.000000 3.416064
17.570004 0.000000 1.373030
24.381036 0.000000 6.815305
15.670340 0.000000 -2.326133
24.060976 0.000000 -9.270492
21.355732 0.000000 1.599417
14.155164 0.000000 -6.598235
16.261011 0.000000 -3.804861
16.239366 0.000000 4.974912
12.172307 0.000000 -5.520323
23.693516 0.000000 -0.372978
22.967181 0.000000 9.449033
22.715509 0.000000 1.885301
24.378072 0.000000 -3.060405
18.234266 0.000000 -4.080499
28.627573 0.000000 -0.110067
21.589191 0.000000 -6.714280
16.003499 0.000000 5.851113
20.000647 0.000000 -7.298508
19.560031 0.000000 6.999224
13.129163 0.000000 0.934534
24.720274 0.000000 2.789285
27.046297 0.000000 9.836754
13.147044 0.000000 -0.040462
26.653683 0.000000 -9.681513
24.253862 0.000000 1.908711
14.318100 0.000000 4.089539
10.425827 0.000000 7.600743
13.467184 0.000000 -5.437938
23.833601 0.000000 6.874128
23.624495 0.000000 2.260788
26.360858 0.000000 -5.552755
10.903460 0.000000 -0.673712
20.647478 0.000000 -7.511419
13.987736 0.000000 2.985284
25.083378 0.000000 -2.190255
19.643397 0.000000 3.384717
21.347672 0.000000 -9.899094
16.244881 0.000000 8.919370
18.480905 0.000000 8.794581
29.538024 0.000000 3.450680
21.400566 0.000000 -3.879112
26.260071 0.000000 9.023665
12.364847 0.000000 0.011317
24.820242 0.000000 2.626647
16.858881 0.000000 -8.715061
26.753174 0.000000 -3.189910
22.816919 0.000000 8.627506
26.701893 0.000000 -2.552063
21.503241 0.000000 -6.774788
20.890588 0.000000 9.257649
18.771305 0.000000 0.011997
21.139155 0.000000 -9.181116
29.953286 0.000000 5.443646
12.766996 0.000000 -7.936513
24.998756 0.000000 -1.438485
17.070754 0.000000 2.265153
24.052406 0.000000 -6.445668
13.983295 0.000000 -8.816421
12.203730 0.000000 5.995387
21.140508 0.000000 2.442631
22.678357 0.000000 -2.753470
29.722384 0.000000 -9.019705
12.920383 0.000000 4.667711
26.498438 0.000000 -3.660552
10.033182 0.000000 -4.102256
19.814009 0.000000 -4.982492
20.086381 0.000000 8.599779
11.575189 0.000000 -0.185429
22.139119 0.000000 -7.540516
29.592117 0.000000 -8.046555
18.960470 0.000000 -8.463295
29.520450 0.000000 1.672411
25.396725 0.000000 -4.046063
18.138785 0.000000 -9.925241
10.384324 0.000000 9.547643
12.121059 0.000000 7.467647
16.065568 0.000000 -9.627688
12.213580 0.000000 4.707284
15.739191 0.000000 -6.919051
20.822482 0.000000 -5.577592
16.191170 0.000000 6.399489
23.476688 0.000000 7.647741
26.051382 0.000000 6.573844
12.803234 0.000000 -0.143484
15.651188 0.000000 -9.597225
21.711271 0.000000 0.360122
29.763165 0.000000 0.717793
24.763608 0.000000 -3.128319
19.612857 0.000000 0.514712
10.510038 0.000000 3.525301
15.823727 0.000000 -2.847685
22.325287 0.000000 -7.329875
29.903782 0.000000 6.367589
17.184935 0.000000 8.259440
16.655629 0.000000 3.584899
13.856839 0.000000 7.040466
17.010726 0.000000 5.233090
25.510760 0.000000 -7.302806
25.271068 0.000000 0.902971
21.901212 0.000000 -6.586858
16.102136 0.000000 -2.772450
17.490766 0.000000 -1.632769
19.627311 0.000000 9.721303
18.869841 0.000000 9.487306
11.713147 0.000000 -7.442164
12.770443 0.000000 -4.801132
23.225753 0.000000 -8.713338
28.322716 0.000000 -3.964151
11.826831 0.000000 -0.139150
26.433124 0.000000 3.192857
10.978203 0.000000 -5.447787
12.031819 0.000000 6.052693
15.192600 0.000000 1.150284
27.547524 0.000000 -8.441332
21.394002 0.000000 6.709706
15.423681 0.000000 1.306607
17.482771 0.000000 -3.278019
15.366814 0.000000 1.762681
16.974988 0.000000 6.043018
26.126810 0.000000 2.066606
27.947706 0.000000 3.268175
17.342849 0.000000 -1.029134
14.620287 0.000000 -9.759328
27.531181 0.000000 -5.568730
10.212506 0.000000 2.835426
22.422541 0.000000 -7.052153
26.512519 0.000000 -2.411769
16.608277 0.000000 2.095724
28.960497 0.000000 -7.183311
14.205086 0.000000 -8.703486
25.169508 0.000000 6.391733
24.778107 0.000000 1.460887
17.149697 0.000000 7.411600
25.051813 0.000000 9.076586
29.223215 0.000000 7.458872
22.510706 0.000000 2.670136
21.835518 0.000000 4.021079
14.004055 0.000000 -8.510355
24.841039 0.000000 1.916964
18.508049 0.000000 -4.168752
22.533404 0.000000 9.920798
16.523955 0.000000 3.829276
24.306391 0.000000 9.169687
21.022057 0.000000 -4.653828
17.482770 0.000000 -3.754899
11.330189 0.000000 1.399384
12.069658 0.000000 1.875783
11.455942 0.000000 -2.827873
26.036472 0.000000 -7.330553
28.066989 0.000000 -8.867688
22.301172 0.000000 9.528262
12.075665 0.000000 2.295104
22.431202 0.000000 4.782415
26.537508 0.000000 7.571138
13.484429 0.000000 8.411118
17.733120 0.000000 -6.161941
26.819490 0.000000 -5.673765
23.699063 0.000000 -3.039620
25.618681 0.000000 -7.636698
26.693333 0.000000 -0.035669
22.901695 0.000000 4.400337
25.437941 0.000000 -7.119115
27.459372 0.000000 -1.872907
26.961780 0.000000 -3.390963
15.092543 0.000000 6.762936
13.111995 0.000000 4.310407
20.726982 0.000000 -7.632575
28.406268 0.000000 0.776557
28.443166 0.000000 -3.752720
18.481567 0.000000 -7.151454
27.100619 0.000000 -6.108705
15.015366 0.000000 -7.167671
28.414882 0.000000 5.998615
10.954455 0.000000 7.227084
16.347472 0.000000 -3.903041
12.432035 0.000000 4.516599
14.142488 0.000000 -7.809215
29.918900 0.000000 5.365070
20.488843 0.000000 6.573664
23.344662 0.000000 7.645695
28.029661 0.000000 -6.673490
18.356013 0.000000 3.601249
12.641220 0.000000 6.505788
11.914561 0.000000 -4.831638
16.429342 0.000000 9.671327
12.261527 0.000000 -7.457577
16.721852 0.000000 9.873611
14.253571 0.000000 -2.966688
15.768354 0.000000 0.096778
25.485568 0.000000 -2.988825
23.338176 0.000000 -1.335387
11.321416 0.000000 2.398485
24.236257 0.000000 -2.621789
19.778371 0.000000 -7.720342
24.455125 0.000000 8.114588
21.177615 0.000000 9.980342
14.125511 0.000000 5.468770
21.174709 0.000000 7.237331
15.598797 0.000000 -3.787260
25.314346 0.000000 -9.506617
17.367706 0.000000 -9.850098
15.739660 0.000000 -6.290315
27.271693 0.000000 -8.992246
22.604785 0.000000 5.331683
24.890375 0.000000 8.645459
19.771497 0.000000 7.258321
13.991963 0.000000 0.953687
26.920685 0.000000 0.826365
24.405517 0.000000 6.958989
20.887967 0.000000 -7.865453
13.771567 0.000000 6.543208
11.891889 0.000000 3.514517
26.365098 0.000000 -6.157141
26.633413 0.000000 9.556915
29.281170 0.000000 6.586632
12.879498 0.000000 -2.278062
10.247794 0.000000 7.634089
21.326489 0.000000 1.752066
24.595845 0.000000 -7.192438
16.198694 0.000000 0.120765
17.600133 0.000000 -5.215183
16.254916 0.000000 0.049173
19.452869 0.000000 -3.751692
17.826697 0.000000 1.956404
25.605733 0.000000 8.104567
28.629855 0.000000 -8.908602
24.792621 0.000000 7.494564
28.164924 0.000000 5.691283
20.786990 0.000000 -4.191110
26.731017 0.000000 5.445570
14.254002 0.000000 -9.944937
27.179786 0.000000 -0.912562
14.037888 0.000000 5.856959
16.340363 0.000000 6.983331
14.460106 0.000000 3.572838
19.242681 0.000000 1.153152
19.221207 0.000000 2.975039
18.164413 0.000000 6.757403
15.875217 0.000000 -7.663623
29.494372 0.000000 3.903111
28.104740 0.000000 -8.706450
28.747542 0.000000 -7.757731
23.574815 0.000000 -9.149148
23.191237 0.000000 3.372790
17.733422 0.000000 0.588976
29.604105 0.000000 -7.024320
23.505742 0.000000 -9.966103
12.662111 0.000000 4.807185
23.470482 0.000000 -9.352003
12.197038 0.000000 -6.608680
22.569419 0.000000 -7.335851
10.512045 0.000000 6.478571
29.116659 0.000000 -0.103466
11.394987 0.000000 0.878718
10.609502 0.000000 -3.204093
11.641623 0.000000 -2.749622
14.749733 0.000000 -7.513991
17.689564 0.000000 4.688864
27.575472 0.000000 2.445146
22.950433 0.000000 -1.961145
21.028887 0.000000 -9.170160
25.325293 0.000000 -9.184382
13.032189 0.000000 0.052764
14.233838 0.000000 -6.842113
26.694077 0.000000 2.382638
20.338576 0.000000 -7.553378
26.597561 0.000000 -5.537145
20.232852 0.000000 4.473245
26.794381 0.000000 -6.402775
27.234912 0.000000 -2.923949
24.577450 0.000000 7.768297
26.098585 0.000000 6.893383
24.865016 0.000000 -5.039120
22.859652 0.000000 1.859243
29.120500 0.000000 9.298808
15.608383 0.000000 -2.239441
23.173352 0.000000 8.798140
16.454532 0.000000 -3.817145
12.397847 0.000000 -6.266388
28.574231 0.000000 9.647032
27.325528 0.000000 -5.932244
13.721323 0.000000 -3.995355
21.363025 0.000000 2.406786
23.792316 0.000000 0.106226
19.765467 0.000000 -6.688668
19.738228 0.000000 7.997351
22.231602 0.000000 -2.482815
28.946782 0.000000 8.395558
22.566512 0.000000 -3.724059
22.508535 0.000000 1.434849
17.948934 0.000000 -0.694977
17.928247 0.000000 7.695158
20.148733 0.000000 7.757995
25.634596 0.000000 6.878919
10.048931 0.000000 7.979419
24.335601 0.000000 -9.731463
27.093907 0.000000 4.253118
16.047003 0.000000 4.003391
22.078839 0.000000 1.529851
25.512252 0.000000 2.153915
14.444786 0.000000 -5.923108
22.317817 0.000000 8.400555
16.463583 0.000000 2.929220
27.842779 0.000000 -9.568687
14.946148 0.000000 4.026761
15.637961 0.000000 -0.852828
17.416807 0.000000 -5.948486
22.625223 0.000000 -4.998005
27.090733 0.000000 -1.693409
27.512829 0.000000 -8.141044
16.651804 0.000000 1.906156
18.063646 0.000000 8.323712
27.505965 0.000000 -1.677904
13.965636 0.000000 0.548514
23.630719 0.000000 -8.942854
22.764172 0.000000 -8.852029
29.472878 0.000000 -4.810778
20.193002 0.000000 -5.163703
25.893362 0.000000 5.545190
20.436287 0.000000 -7.354882
10.806560 0.000000 0.170273
21.624153 0.000000 -3.206608
28.401308 0.000000 -7.523756
17.302617 0.000000 9.292882
23.456075 0.000000 -1.948890
28.066686 0.000000 -2.304533
27.454563 0.000000 -0.851236
21.612891 0.000000 0.641848
21.706451 0.000000 -4.691714
13.247191 0.000000 -4.154411
24.063265 0.000000 -8.702261
13.729782 0.000000 0.049832
16.171516 0.000000 -3.667758
24.321957 0.000000 -0.031491
27.750417 0.000000 8.595848
11.067634 0.000000 -5.986482
16.044049 0.000000 1.735127
11.548956 0.000000 -8.616588
27.807297 0.000000 2.697044
14.891560 0.000000 9.889840
10.014315 0.000000 -7.821508
25.857094 0.000000 8.753561
21.022734 0.000000 7.861551
22.413958 0.000000 5.626433
12.936268 0.000000 5.816794
25.603857 0.000000 3.636080
18.954479 0.000000 -5.328156
24.784898 0.000000 7.035451
23.903404 0.000000 -8.906344
21.893411 0.000000 0.354861
22.131248 0.000000 2.307133
14.314778 0.000000 -7.434968
14.622571 0.000000 -5.377883
26.129976 0.000000 2.959235
12.185594 0.000000 7.188315
29.326772 0.000000 7.845166
14.461743 0.000000 -1.264543
26.642914 0.000000 -6.366948
27.173391 0.000000 9.537031
10.216573 0.000000 -7.016862
11.866075 0.000000 2.210468
17.838235 0.000000 8.018719
10.936353 0.000000 -8.589285
13.864125 0.000000 6.710009
11.832550 0.000000 -7.446923
25.836706 0.000000 2.231692
18.971342 0.000000 2.689197
25.196162 0.000000 8.626573
24.661506 0.000000 -9.224420
17.222625 0.000000 -8.508470
16.044701 0.000000 1.881547
18.809449 0.000000 0.141837
10.346707 0.000000 3.367482
10.527642 0.000000 -5.925681
16.035577 0.000000 3.968666
26.302779 0.000000 3.308846
25.104517 0.000000 -0.903545
16.701992 0.000000 -6.644992
11.046386 0.000000 -6.082429
29.210932 0.000000 -6.620848
28.924861 0.000000 7.811514
27.868357 0.000000 5.802987
23.178325 0.000000 -0.786943
24.765161 0.000000 -5.596895
26.799740 0.000000 -4.112013
28.996473 0.000000 -1.269773
27.712546 0.000000 -9.641231
23.275901 0.000000 0.885005
22.843940 0.000000 -6.539700
12.071016 0.000000 -7.454542
26.287541 0.000000 -1.762678
23.940528 0.000000 9.630653
21.742077 0.000000 7.263533
17.768354 0.000000 -7.844419
29.639008 0.000000 -0.585222
18.674892 0.000000 6.380349
29.481154 0.000000 5.683435
21.916246 0.000000 7.322885
12.073370 0.000000 3.861929
21.755877 0.000000 -3.944535
17.769918 0.000000 -4.313168
15.164614 0.000000 9.127467
13.574098 0.000000 -4.142052
20.993683 0.000000 1.240401
16.941513 0.000000 2.353635
28.296705 0.000000 9.394329
21.121228 0.000000 -4.636532
14.278265 0.000000 -8.549477
28.991228 0.000000 6.554821
25.679450 0.000000 0.960636
14.293093 0.000000 -3.703506
29.224842 0.000000 -3.304782
26.263425 0.000000 -0.971033
28.635288 0.000000 5.151924
18.832896 0.000000 6.470692
23.483448 0.000000 4.173223
26.372266 0.000000 1.774435
27.023000 0.000000 -9.002455
12.349524 0.000000 -5.434502
25.360378 0.000000 1.841998
26.156341 0.000000 2.336775
25.695836 0.000000 8.581611
13.832495 0.000000 3.895536
10.659187 0.000000 -1.731834
26.307989 0.000000 5.562665
18.111655 0.000000 -5.663167
17.818562 0.000000 -2.325111
17.325549 0.000000 3.786828
28.451756 0.000000 4.470172
20.405693 0.000000 -2.850810
26.749261 0.000000 -1.269206
18.705740 0.000000 -7.483678
19.366864 0.000000 1.080315
13.887635 0.000000 -7.289717
13.699246 0.000000 5.388963
20.456463 0.000000 1.615004
26.381481 0.000000 -2.321152
21.801867 0.000000 6.383671
26.893298 0.000000 6.455593
20.160746 0.000000 9.302026
24.827898 0.000000 -1.645901
28.992021 0.000000 9.311048
14.574445 0.000000 -1.146188
12.656955 0.000000 2.659138
22.477546 0.000000 7.166332
18.158268 0.000000 3.974152
17.144295 0.000000 2.364444
13.696090 0.000000 2.368729
25.436456 0.000000 7.645313
16.184141 0.000000 -1.802367
27.525277 0.000000 -3.994285
29.307295 0.000000 -5.889048
24.468023 0.000000 -6.171835
22.418714 0.000000 -0.783705
27.960071 0.000000 5.717714
21.433094 0.000000 7.714673
23.096826 0.000000 -5.261459
14.814531 0.000000 -6.037011
27.828270 0.000000 -2.689089
29.938484 0.000000 -5.074607
18.235005 0.000000 4.381574
23.167172 0.000000 3.746383
15.826808 0.000000 -6.860108
25.241519 0.000000 -7.665849
24.295592 0.000000 2.868207
20.824975 0.000000 9.517563
13.058510 0.000000 2.877108
23.114746 0.000000 -5.806954
19.785333 0.000000 7.645140
12.478143 0.000000 -9.593371
27.918391 0.000000 -5.378115
24.149922 0.000000 2.363412
15.202658 0.000000 9.634242
23.616037 0.000000 -8.372818
23.723112 0.000000 8.680844
29.478932 0.000000 8.194277
24.858439 0.000000 9.807260
29.983906 0.000000 8.121418
20.141241 0.000000 -2.895873
21.506928 0.000000 -6.279136
15.792210 0.000000 2.152767
12.319091 0.000000 -3.040220
15.108947 0.000000 6.630964
20.523902 0.000000 5.482166
29.491075 0.000000 7.562352
15.242043 0.000000 -0.633125
15.652927 0.000000 2.908422
13.535636 0.000000 5.063771
11.631660 0.000000 8.986291
18.296087 0.000000 -3.300838
10.693342 0.000000 2.734153
25.814510 0.000000 2.861869
25.423271 0.000000 0.370214
20.781098 0.000000 -1.731009
20.936247 0.000000 7.099905
29.092659 0.000000 6.010323
26.430914 0.000000 9.547377
16.263338 0.000000 -1.370355
12.241739 0.000000 -9.922093
22.661492 0.000000 4.012268
18.725984 0.000000 4.825834
17.955707 0.000000 -1.795287
22.746052 0.000000 0.737356
11.316610 0.000000 3.399583
19.309342 0.000000 0.702657
14.551166 0.000000 4.967689
27.398412 0.000000 -1.143114
24.284800 0.000000 4.051378
10.595264 0.000000 -8.430432
11.956420 0.000000 5.154486
25.504613 0.000000 -4.186150
26.521323 0.000000 7.634163
24.126714 0.000000 -9.446266
10.203864 0.000000 -7.714387
18.508267 0.000000 5.989066
25.700391 0.000000 -7.367833
16.305909 0.000000 4.618013
24.521893 0.000000 5.184316
22.261816 0.000000 8.282681
27.581376 0.000000 9.520200
22.002381 0.000000 1.821693
16.427420 0.000000 4.314391
21.402677 0.000000 3.914972
14.712317 0.000000 -7.947929
16.794488 0.000000 8.163308
27.426437 0.000000 -9.224174
18.201344 0.000000 6.533248
10.472137 0.000000 3.555895
25.259934 0.000000 -3.612353
23.687255 0.000000 -3.701977
26.394751 0.000000 -3.963638
28.692208 0.000000 -5.983944
14.224314 0.000000 7.812455
20.226452 0.000000 5.239255
14.293355 0.000000 3.396682
19.476049 0.000000 5.639781
10.573285 0.000000 -1.380973
24.344963 0.000000 0.663140
27.340559 0.000000 4.442890
18.304177 0.000000 0.895142
28.019252 0.000000 -7.189425
25.752821 0.000000 9.806373
21.023464 0.000000 -5.432530
18.556911 0.000000 -4.984142
15.538880 0.000000 9.893128
14.465899 0.000000 8.306098
26.518620 0.000000 -0.382275
26.484339 0.000000 1.048853
15.847267 0.000000 -6.227658
16.870355 0.000000 8.984775
28.044971 0.000000 3.142450
15.899550 0.000000 -7.980533
11.437960 0.000000 5.769900
13.395219 0.000000 3.124895
23.604213 0.000000 -9.587534
20.300993 0.000000 2.957675
27.658803 0.000000 1.004313
14.298836 0.000000 -7.453371
29.940476 0.000000 -2.359888
27.247302 0.000000 8.660920
20.340012 0.000000 -5.863840
15.156751 0.000000 2.580796
25.924732 0.000000 -6.953695
20.998192 0.000000 4.400832
23.671300 0.000000 3.579007
23.456015 0.000000 -5.082795
25.506421 0.000000 2.329994
23.081849 0.000000 -8.692019
12.945377 0.000000 -5.261438
28.375278 0.000000 -7.065009
21.440804 0.000000 -4.715332
27.963313 0.000000 5.375062
24.013164 0.000000 5.509955
13.199543 0.000000 4.008336
25.884774 0.000000 -7.458216
14.652905 0.000000 9.985567
20.686644 0.000000 -9.619472
17.825638 0.000000 -5.827195
11.957133 0.000000 -9.051780
15.926060 0.000000 1.689845
16.001195 0.000000 -5.970556
13.021820 0.000000 4.257366
26.897355 0.000000 2.253181
24.978203 0.000000 1.820338
-3.337002 -3.723495 -0.390265
1.657417 -4.717305 6.213811
-4.094017 2.870370 -2.058665
3.123735 3.904136 4.638320
-0.352731 4.987543 -5.717513
-4.938663 0.780774 1.250814
0.417760 4.982517 7.221791
4.801435 -1.395071 -5.873683
4.903421 0.977987 7.936658
-4.688365 -1.737593 6.578770
4.841118 1.250432 9.088678
3.174477 -3.862991 7.737942
3.162472 -3.872825 5.262130
-4.654964 -1.825187 -9.710753
4.041630 2.943676 -0.963052
4.999350 -0.080628 -5.559649
-4.960690 -0.625741 -4.378880
4.805502 1.380997 7.557985
4.509441 2.159848 7.760702
0.059807 4.999642 3.927345
-4.585117 1.994167 8.162850
4.203215 2.707948 1.495637
1.506324 -4.767703 5.948536
4.652804 -1.830686 -4.198918
-3.050242 3.961821 -9.411523
3.678452 -3.386590 9.843275
-2.260056 4.460061 9.094672
-4.791422 1.429083 4.545800
-0.172296 -4.997031 5.785893
-4.032991 2.955501 4.774512
4.905381 0.968108 6.028817
-4.856907 -1.187624 1.052717
-4.946173 0.731689 7.240412
-2.106357 4.534673 -8.305827
-4.454249 -2.271490 3.341963
-4.927396 -0.848984 -2.245517
-4.866893 -1.146018 2.312186
-2.504629 4.327451 9.835286
-2.051038 4.559961 9.882374
-4.163760 2.768231 -0.661288
-4.858208 -1.182293 4.528616
-4.159814 -2.774158 -9.237497
3.256952 3.793714 -9.848509
-3.247361 3.801926 8.621190
-4.988412 -0.340219 8.809147
4.979769 0.449337 2.700875
4.790127 1.433416 9.277473
-3.288514 -3.766387 -6.582320
4.447091 2.285472 -1.039923
4.003533 2.995283 -8.517458
2.616623 4.260667 -5.855387
2.965183 -4.025878 3.737418
4.999504 -0.070445 -0.880649
-1.839030 -4.649513 5.242277
4.415186 2.346516 -1.430080
4.916863 -0.907996 5.165917
-4.569048 2.030714 3.897359
1.083287 4.881238 5.405283
3.144027 3.887813 1.182004
2.690400 -4.214469 7.696449
0.749972 4.943434 -4.364673
-4.546728 2.080207 2.692655
-2.552517 4.299378 1.549189
4.735573 -1.604476 9.460747
2.542813 4.305125 -2.669384
0.780872 -4.938648 -9.211990
0.253540 4.993568 -5.645580
2.501705 4.329142 -5.411281
1.168594 4.861521 2.104104
-3.239559 -3.808577 2.557866
-3.960699 -3.051699 -7.728835
-4.020279 2.972770 -1.847226
4.693387 -1.723984 4.682465
-0.403491 -4.983693 3.300747
3.058592 -3.955378 4.846179
4.544650 2.084743 5.338019
-3.333739 -3.726417 -9.787711
4.707772 -1.684306 2.822684
-4.690022 1.733116 -2.823828
-3.623961 3.444838 2.405202
2.414893 4.378161 5.613950
3.192378 -3.848210 6.519013
4.372891 2.424423 -4.821405
2.423095 -4.373627 6.879878
4.576595 -2.013648 -3.139769
4.906751 -0.961143 -7.223406
4.795680 -1.414726 -8.379127
-0.168500 4.997160 -8.028553
2.236538 -4.471901 2.953769
-4.944657 -0.741865 -4.344720
3.830112 3.214070 3.028044
-4.846014 1.231319 -0.429111
-3.419123 3.648232 5.900515
-3.020596 3.984469 -9.987109
3.198074 3.843478 3.643505
-4.866863 -1.146142 6.609138
-4.821359 1.324573 -3.358588
3.723195 -3.337337 -6.271861
4.853192 -1.202715 8.399432
-3.247108 3.802143 -8.706331
0.300025 4.990990 1.392869
-0.773639 -4.939786 -3.421034
4.560677 -2.049445 5.343716
-0.906021 -4.917227 -4.587739
2.506499 4.326368 -4.448546
-2.578304 -4.283964 0.679157
-4.650560 1.836381 -8.735585
-4.983258 0.408831 -6.819835
-3.498850 3.571841 6.127106
-2.582257 -4.281582 -8.885676
2.073513 4.549785 -0.732244
3.832372 3.211374 3.199967
3.208405 3.834858 -4.893741
4.070791 -2.903215 0.536483
2.149726 4.514275 6.311480
3.011033 3.991702 -0.473628
2.654876 4.236937 -1.043714
1.171887 4.860728 5.843958
-4.988429 -0.339971 -7.006522
-4.715497 1.662554 -3.136214
1.768950 4.676624 -1.995570
-4.985676 0.378197 -8.911216
-1.177887 -4.859278 -2.660637
3.899649 -3.129334 0.367453
3.400880 3.665244 -3.503096
4.906830 -0.960740 -9.090626
4.580602 2.004517 -0.275342
3.322015 3.736873 -2.674835
2.145994 4.516050 4.875185
-4.994937 0.224947 8.854429
4.992002 0.282703 2.503598
-0.948119 -4.909284 5.948418
4.969116 -0.554871 -6.007572
4.082319 2.886983 -9.831997
-4.862079 -1.166271 7.560600
-2.206647 -4.486726 -3.613054
-4.288785 2.570276 -5.909219
-3.497080 3.573574 7.540282
4.901071 -0.989698 -3.656428
2.613080 -4.262841 -3.555029
-2.256995 4.461611 3.431631
2.625012 4.255504 -3.719441
-3.457513 3.611869 8.837242
0.525581 4.972300 -6.258624
-3.862341 3.175267 -9.339874
-3.319821 -3.738822 -9.861000
4.845905 -1.231749 3.116314
4.176993 -2.748222 -0.530761
-0.456655 -4.979103 1.935863
0.524178 4.972448 7.782030
-2.205745 -4.487170 -1.838900
0.772876 4.939905 -9.661429
4.931757 0.823268 1.900812
-0.898839 4.918545 5.140942
-3.247857 -3.801503 0.900883
-3.919983 3.103826 8.392368
-3.552976 3.518006 0.080963
-4.939436 -0.775872 4.339868
-4.986601 0.365796 -4.612700
-1.746694 -4.684982 5.753324
3.284070 -3.770263 -2.460148
-1.685539 -4.707330 -3.654914
-1.056508 -4.887105 -0.949882
3.489499 -3.580977 -8.554791
-0.888077 -4.920500 3.674232
-3.094436 3.927399 9.522694
-0.939877 -4.910869 -0.850987
2.793174 -4.147069 -1.410887
4.474411 2.231511 9.162729
-0.482132 -4.976701 -4.652448
4.067222 2.908213 -1.808521
4.843080 1.242810 -4.974741
-4.959606 0.634276 5.504220
3.209366 -3.834054 6.713974
-4.976047 0.488831 7.157093
-2.099443 4.537878 9.511502
3.156994 3.877292 9.347846
-1.999723 -4.582696 7.414036
-4.976735 -0.481781 -3.370522
4.961214 -0.621577 -2.851653
3.018297 -3.986212 7.872662
-1.981193 4.590738 4.976315
3.443347 -3.625377 1.854376
2.325314 -4.426388 -5.109942
4.991628 -0.289221 6.115017
-3.502624 -3.568141 -6.914460
3.362549 -3.700441 0.941899
-0.139539 4.998053 -8.622354
4.999069 -0.096468 2.357903
-1.438812 -4.788509 -9.598877
4.361214 -2.445365 9.562337
4.956951 0.654705 9.356648
-3.968702 -3.041283 -7.835833
4.241266 -2.647955 -8.241014
4.647698 -1.843612 -9.296977
-4.995429 0.213747 -4.713901
4.992380 0.275946 -7.329573
0.830189 -4.930597 -4.489458
4.999040 -0.097962 -4.270526
1.554511 4.752209 8.798361
1.910505 4.620603 -4.849732
0.546880 4.970002 -2.018445
4.106218 -2.852889 0.111922
-4.002637 -2.996480 -0.184407
3.977394 -3.029908 3.229436
0.306363 4.990605 3.957604
-4.767750 1.506174 8.648867
-4.826477 -1.305801 2.048809
3.175795 -3.861907 9.161658
4.701203 1.702554 -9.349193
-4.968698 -0.558609 2.110597
1.319557 -4.822734 1.479014
-3.162235 3.873018 -1.871194
0.291313 4.991506 6.961847
4.987800 0.349066 -6.653641
4.908375 -0.952814 8.978834
-2.427978 4.370918 -7.290774
-3.694854 3.368688 4.795237
2.871667 -4.093108 -6.528184
-0.247810 -4.993855 -8.956879
3.854751 3.184477 -3.849615
-4.313671 -2.528288 -5.832890
0.798851 -4.935771 -7.710650
-4.223621 -2.676009 8.542769
-3.023609 3.982184 3.645382
-1.543903 -4.755666 -3.880288
-4.484652 2.210859 -2.286600
4.907466 0.957484 9.724318
1.276752 4.834243 -6.767605
-0.095418 -4.999089 1.384780
-3.718249 3.342847 -1.595358
-2.468283 4.348285 -8.431932
-3.905670 3.121817 -6.705185
1.598207 4.737693 1.719952
-1.838433 -4.649749 -2.460901
-3.929291 3.092034 7.216764
3.410715 -3.656094 -3.513129
3.543371 -3.527679 1.985931
4.042548 -2.942415 7.144673
-4.329618 -2.500881 3.050352
-4.475792 -2.228741 7.330814
-4.547090 -2.079415 -0.047805
2.815985 -4.131613 9.736651
-4.985153 0.385033 3.874890
4.919128 -0.895643 7.086682
4.345649 2.472920 -8.732163
4.131115 -2.816716 -1.657686
2.106248 -4.534724 1.697007
4.157714 -2.777303 6.657962
-4.993119 -0.262222 -1.387985
4.090833 -2.874906 -1.418199
-2.513771 4.322147 -6.989179
-4.860669 1.172135 4.425721
-4.641429 -1.859337 2.200020
1.911352 -4.620253 1.255903
4.740379 -1.590223 3.568008
-4.983235 -0.409108 -9.804120
-4.729172 1.623247 2.641701
3.996540 -3.004607 6.847430
-2.902733 -4.071135 6.002064
4.670284 -1.785623 -0.012255
-4.622544 -1.905803 4.389605
-3.335333 -3.724990 -2.244489
2.004173 4.580752 6.079883
-4.407902 2.360170 -7.514703
-0.023826 4.999943 -1.404255
4.045581 -2.938243 1.236277
4.576280 -2.014364 -3.701920
1.991178 4.586416 4.537247
-2.474531 -4.344732 4.887866
-1.208544 -4.851744 2.534604
1.311963 -4.824806 2.444853
4.998393 0.126760 2.061168
0.680722 -4.953445 0.540523
4.666304 -1.795999 -1.585437
4.872195 1.123262 8.739172
3.607239 3.462344 1.464020
2.832186 4.120525 -2.557595
2.552219 4.299555 5.715077
-4.468886 -2.242555 -0.031592
-3.098812 -3.923948 4.362926
3.923818 -3.098976 -0.611591
-2.988633 -4.008500 -6.784561
3.364866 -3.698334 6.718135
3.735924 -3.323081 7.354559
-0.448897 -4.979808 9.157665
4.855966 -1.191468 5.522196
2.863695 4.098689 9.567275
-4.869643 1.134275 -0.661100
-3.284481 3.769905 5.617572
4.902574 0.982227 1.067147
-0.083180 4.999308 -0.677087
-2.650957 -4.239390 8.370568
-0.728035 4.946713 5.885614
-2.578653 -4.283754 -9.952088
-4.638413 -1.866848 5.726406
0.164061 -4.997308 -2.494815
-3.306339 3.750750 -8.214220
-1.277061 4.834161 0.339586
4.752776 1.552777 -8.437834
-4.693229 1.724414 -0.394437
-4.975865 0.490677 3.382544
4.999992 0.009149 -8.537733
2.563756 4.292686 6.096454
1.179557 -4.858873 0.073905
-1.271551 4.835613 3.963732
-2.513782 4.322141 5.591442
-1.510620 4.766343 -5.302657
-3.227571 -3.818741 -7.996086
1.757044 -4.681111 1.630794
-4.859386 1.177441 -7.148004
4.948718 0.714278 -7.326112
-4.943326 0.750685 9.394390
-3.937456 -3.081630 -2.787670
-2.964669 -4.026256 2.674490
4.783647 1.454896 0.863312
0.330625 -4.989057 9.775823
4.244103 2.643406 -7.123678
-0.450225 4.979688 -2.545674
-4.879163 1.092599 -3.706594
3.449917 -3.619126 5.761476
4.096613 -2.866664 3.171913
4.507239 -2.164439 0.039158
3.789086 3.262335 1.334655
3.667621 -3.398317 -3.612982
-1.118810 -4.873219 2.677103
4.919961 -0.891057 -5.314358
-1.890782 -4.628708 -1.494107
4.647409 -1.844340 3.647283
-4.436421 -2.306116 4.685572
-3.336361 -3.724070 -8.493588
4.403421 2.368519 -6.675335
4.952554 0.687174 -3.612820
4.976152 0.487763 -0.562600
0.776834 4.939284 2.858378
-1.832076 -4.652257 -5.819510
4.332998 2.495021 5.297728
-4.190296 2.727897 -4.495985
-3.213249 -3.830800 0.452501
4.682914 -1.752233 -8.691598
-4.313141 2.529193 0.337139
-3.434464 3.633794 -0.261754
0.771128 4.940178 -7.905366
1.114109 4.874296 -4.007771
-0.002987 4.999999 8.886875
4.988657 -0.336607 -3.077146
-4.679393 -1.761613 -8.461542
4.980690 -0.439002 -4.927062
2.726585 4.191150 1.908777
-4.230133 -2.665703 4.409699
3.925562 -3.096767 9.435422
-1.397064 -4.800855 -9.274830
2.083789 -4.545088 8.232383
-0.145037 -4.997896 4.508008
-3.331133 3.728747 -0.029918
-2.410846 -4.380391 -5.937512
1.989255 4.587250 -9.720587
-4.986430 0.368130 -3.232433
-4.059087 -2.919557 -1.511267
-3.604509 3.465186 4.446435
0.847047 -4.927729 -7.169407
0.031690 4.999900 -5.074340
-3.253859 3.796367 -6.667903
2.589337 4.277305 0.753890
-4.959758 0.633090 -6.071075
-2.515609 -4.321078 3.387254
4.922705 0.875772 -5.133870
4.076307 -2.895466 -9.589998
2.264170 -4.457974 -6.953198
-4.631159 1.884772 9.542587
4.902248 -0.983852 6.577751
-2.896491 4.075578 5.961767
2.696653 4.210471 -8.302246
3.932794 3.087577 -8.029783
-1.650718 -4.719653 6.190909
4.410429 2.355445 8.643140
-4.182025 -2.740560 -4.905895
2.754655 4.172754 7.163333
-4.973920 0.510024 5.421623
1.616860 4.731360 -0.806889
4.987466 -0.353813 -1.593821
2.939469 4.044691 -6.544037
-4.990976 0.300270 -2.316316
4.848419 -1.221816 2.487598
0.083591 4.999301 8.016983
-3.867433 -3.169064 0.507024
-3.028328 3.978597 -5.538736
1.736448 4.688790 -1.927129
4.766155 -1.511212 -9.381900
3.615980 3.453214 -9.494381
-0.610832 4.962548 -2.825348
4.067737 -2.907494 1.234750
4.419878 2.337664 3.389282
3.661436 -3.404980 0.867228
-3.625470 -3.443250 2.341024
-3.859174 3.179116 -9.100343
0.397271 -4.984193 0.278364
-3.559487 3.511417 -7.228121
-3.268526 -3.783747 -7.658112
-4.239154 -2.651335 -2.756922
-1.329551 -4.819989 -3.759307
1.885546 4.630844 -8.748134
2.549965 4.300893 9.412246
-4.696093 -1.716599 -7.183072
-2.558194 4.296003 4.805282
0.255474 -4.993469 6.844502
2.873665 4.091705 9.145945
-4.978123 0.467221 0.835204
3.988378 -3.015434 5.239140
0.037241 -4.999861 -3.238027
-4.863922 1.158561 9.644942
3.809641 -3.238308 -2.312204
4.469528 2.241275 -3.126367
3.085542 3.934390 1.906290
0.547693 -4.969913 -9.662291
-4.987786 -0.349277 1.539255
4.409166 -2.357806 5.609369
-3.201974 -3.840230 5.884800
-3.916712 -3.107952 -4.205765
-1.879310 4.633378 3.280665
2.595685 -4.273455 -3.907840
4.510925 -2.156746 -3.017657
2.573942 -4.286586 -4.036166
4.740402 1.590154 -9.993262
0.315539 -4.990034 -1.869220
-0.756162 4.942491 -4.734406
-2.831682 4.120871 5.728103
4.366823 2.435335 -9.515365
4.126446 2.823552 2.288712
4.955099 0.668576 0.891742
4.499961 -2.179529 0.837475
4.388203 2.396597 -6.220547
-2.993881 -4.004582 2.131918
4.981892 -0.425154 4.106804
0.318033 -4.989875 9.018773
-4.329825 -2.500523 -5.384585
2.934193 -4.048519 -9.424184
-4.926446 -0.854477 9.083972
-1.097344 4.878098 -1.415565
-3.505124 3.565684 2.136223
4.486722 2.206655 3.247002
-4.514830 2.148559 0.502117
4.708816 -1.681383 7.495804
-2.088763 4.542804 -5.678272
-4.982927 0.412843 5.879618
-3.544026 -3.527021 3.839125
2.358689 4.408694 4.641391
-0.224695 4.994949 -7.969458
0.137401 4.998112 9.165061
3.341587 -3.719381 -0.028877
-1.638822 4.723798 -0.396112
4.944260 -0.744508 -2.361108
-4.916625 -0.909284 5.112547
1.199583 -4.853967 9.869302
4.189892 2.728517 -0.039963
0.486854 4.976241 -3.842355
4.606933 1.943237 2.069782
-3.974830 3.033269 -3.769815
-4.363585 2.441133 7.730670
-2.950784 -4.036443 2.391254
1.578227 4.744386 4.467310
-4.974523 0.504106 -9.818598
-4.162900 2.769524 -6.645255
-3.767813 -3.286881 0.486143
1.167880 4.861693 6.789562
-2.264326 4.457895 -1.367281
-4.247043 -2.638680 4.601062
-1.073950 4.883301 0.318743
1.263299 -4.837776 9.000181
1.353879 -4.813212 -0.769267
2.135295 -4.521119 0.040464
-4.999437 -0.075051 -9.291183
3.848055 3.192565 -4.857301
2.282492 4.448621 2.925672
-0.702294 -4.950433 -2.327740
-2.457638 4.354310 -7.978718
-4.401321 -2.372420 5.633743
4.979748 -0.449570 -3.904748
-1.782231 4.671579 5.178433
4.385262 2.401973 -8.560436
-3.737663 -3.321125 3.290773
3.494212 -3.576378 -9.310119
-4.998781 0.110413 3.241616
1.263667 4.837680 4.332345
4.913524 0.925894 -2.243324
4.244449 -2.642850 -1.975235
3.354618 3.707632 -4.844400
1.317381 -4.823330 -2.950128
3.071733 -3.945181 5.168680
-4.806381 1.377932 -3.042492
-1.718060 -4.695558 -4.878954
4.783210 1.456332 1.728727
-4.925241 0.861394 2.418320
4.071046 -2.902859 -1.742776
-4.105212 2.854336 6.099723
4.912424 -0.931714 -0.322816
-1.238902 4.844081 6.004001
-2.042869 -4.563626 -7.203196
2.908350 -4.067124 -3.111607
4.720693 -1.647743 -1.922926
-1.267981 -4.836551 9.504787
-4.856561 -1.189038 -1.883827
-0.797870 4.935930 6.050992
-3.094691 -3.927198 1.965364
-4.976787 0.481237 2.896403
-1.105574 -4.876239 -2.381199
-1.865896 -4.638796 7.080328
-1.627088 4.727852 -0.394542
-0.841030 4.928759 -4.258017
-2.258324 4.460939 -2.166911
1.285647 -4.831885 8.687244
-0.756486 4.942442 0.383042
1.273482 -4.835105 -8.044135
1.948506 4.604707 9.561957
0.697206 -4.951152 7.118833
1.011349 -4.896649 -9.057690
-4.495710 2.188285 -7.483974
-0.955960 4.907763 -2.603901
-3.995302 3.006253 5.330364
1.778754 4.672904 7.479325
4.853071 1.203206 0.607971
-4.996834 -0.177917 2.314887
4.355008 -2.456401 2.843384
1.478966 4.776260 -5.246207
4.954910 0.669974 -7.239807
-2.988366 4.008699 9.447588
-4.961557 0.618830 -3.949340
4.596794 -1.967100 -1.097930
4.134130 -2.812290 -8.562680
4.931296 -0.826029 3.423097
4.375532 2.419653 -7.655689
2.548533 4.301741 9.759135
-3.003996 -3.997000 0.606238
3.336970 3.723524 -4.818145
-3.306206 -3.750867 -0.865985
-4.982155 -0.422051 -8.881419
3.432129 3.636000 -2.132655
3.277486 3.775988 5.276127
1.326872 -4.820727 9.894896
-4.275664 -2.592044 -8.256585
3.582499 3.487937 -1.460895
2.785023 4.152547 1.827906
4.063146 2.913906 5.326426
4.396314 2.381684 -5.810906
2.057538 -4.557032 -5.679858
-1.902414 -4.623940 -3.095104
-3.078934 3.939564 3.648726
-3.661597 3.404807 -9.745155
-4.521424 -2.134648 -4.327319
-0.878503 -4.922218 -8.134602
-3.165901 3.870022 -8.453724
0.949116 -4.909092 -4.137955
4.114380 -2.841106 -5.785428
-3.155811 -3.878255 -1.087839
-4.749252 1.563523 6.352629
-2.142453 -4.517731 7.508248
-4.861190 -1.169973 -9.394917
-4.961597 0.618507 8.628191
4.998735 -0.112469 4.068572
3.428092 3.639806 -0.490274
0.217113 4.995284 -4.007861
2.948990 4.037754 8.997073
1.437098 -4.789024 -2.930932
4.131275 2.816482 7.339668
-1.195137 4.855064 -9.607581
-4.501621 2.176099 -6.346752
2.943585 -4.041696 -0.371621
-0.881003 4.921771 -9.575158
-1.836485 -4.650519 0.906385
4.277814 -2.588495 1.423237
1.517651 -4.764109 1.091603
0.474800 4.977405 6.771931
-3.016127 3.987854 -1.242484
-4.747838 -1.567812 -6.796272
-4.988686 0.336170 3.375733
4.786268 -1.446250 -0.695335
-4.378527 2.414230 -7.781944
4.818051 1.336555 9.348593
3.407591 3.659005 -0.365378
1.834735 -4.651209 7.279355
2.777497 -4.157585 -2.046247
4.913317 -0.926994 7.492502
-4.732220 1.614341 -5.332189
2.530486 -4.312382 -6.352176
4.996173 -0.195586 -7.941142
-1.124723 4.871858 2.745244
2.602961 -4.269027 7.306794
-4.954540 0.672707 -2.045105
4.751515 1.556632 5.400361
4.572084 2.023869 -8.856239
4.854271 -1.198356 -2.489917
2.349389 -4.413657 -0.830047
-4.644583 1.851446 2.565946
-2.156506 -4.511040 -1.663787
3.106378 -3.917961 9.573577
4.975631 0.493053 -3.224688
-2.554757 -4.298048 -5.328702
-1.098921 -4.877743 -3.756308
-0.403575 4.983686 -3.671480
-2.938550 -4.045359 6.008916
4.986710 -0.364312 -8.908253
-2.821455 4.127880 -3.603838
-4.879548 1.090874 -7.830429
-1.501433 -4.769245 -5.663084
-0.454520 -4.979298 5.660751
-4.372184 2.425697 -6.493630
1.397675 4.800677 -9.580179
1.904800 -4.622958 -5.760951
-3.416255 3.650918 -6.788393
1.324391 4.821409 -4.268717
0.564749 -4.968004 2.754219
4.392408 -2.388882 -7.258105
3.472746 3.597226 -5.866169
4.935827 -0.798504 -5.061507
4.351206 2.463130 9.265980
-1.502482 4.768915 3.930134
3.353460 3.708680 -8.795922
-1.543419 -4.755824 -4.005787
-4.169384 2.759754 3.664867
1.727081 4.692248 0.775464
0.493091 -4.975627 -1.564179
-3.510808 -3.560088 -9.605971
4.930740 0.829339 -3.063532
3.579528 -3.490985 3.888927
2.481406 4.340809 4.427430
-4.991191 0.296665 0.714053
-4.094387 2.869842 0.697046
3.955476 -3.058466 0.169624
-4.644791 -1.850922 -1.409079
0.485765 4.976347 -4.222264
1.258632 4.838992 4.583658
0.099693 -4.999006 -2.303650
1.340088 -4.817070 -6.706854
-1.254382 4.840096 -4.939517
2.808332 -4.136819 1.646109
2.338316 -4.419534 8.443113
-3.530275 -3.540785 -0.160673
1.730718 -4.690908 6.098573
4.059091 2.919552 9.227202
4.700760 1.703778 8.341046
-3.296743 3.759186 0.235086
-4.721463 -1.645536 3.502498
-2.988999 -4.008227 -8.068489
0.742623 -4.944544 -0.035354
3.569591 -3.501146 9.694714
-3.283931 -3.770384 9.838608
3.785163 -3.266886 -9.094583
0.744028 4.944332 -0.139687
-1.982594 -4.590133 4.795939
-3.591407 -3.478763 -8.844069
-4.968773 -0.557940 -3.696311
3.728439 3.331477 -0.080199
0.025244 4.999936 1.481616
-3.563777 -3.507063 -9.452235
2.669236 4.227905 7.665946
-1.203301 -4.853047 -4.371774
-2.565193 -4.291828 3.246104
-0.003431 4.999999 -5.204195
4.602424 -1.953891 5.716096
-4.998244 -0.132513 -6.117449
4.148162 -2.791551 -0.138317
-2.582723 4.281302 -1.140991
-4.754278 -1.548175 8.193494
4.773503 1.487839 0.777176
-1.335928 -4.818226 -2.310557
-1.405761 -4.798316 6.201413
-4.910563 0.941475 -1.256739
-4.774224 1.485526 0.236630
-3.660217 3.406289 -3.227174
3.943485 -3.073911 -0.194947
-2.354331 -4.411023 2.144732
-3.427938 -3.639951 2.449592
3.901001 3.127650 6.729793
-2.555871 4.297386 8.917508
-3.093028 -3.928508 -6.578810
-4.843989 1.239264 3.368171
-3.765248 -3.289818 5.783441
-4.434772 -2.309284 -8.261221
1.653889 -4.718543 -7.050481
-1.242175 4.843243 -4.956106
0.869609 -4.923797 -4.878891
-1.352725 -4.813537 3.841669
0.028594 4.999918 -8.429217
-0.014024 4.999980 0.935585
2.130724 -4.523275 -9.679458
-4.962220 -0.613489 0.783162
-0.519061 -4.972985 8.112064
-0.135241 -4.998171 -9.148947
-3.574118 3.496524 7.573794
-4.746779 -1.571015 0.302608
4.290656 -2.567153 2.076013
3.381202 3.683405 -8.708612
-1.322383 -4.821960 8.344470
-0.917047 4.915183 7.434562
3.485948 3.584434 -1.158049
0.829608 -4.930695 0.619938
-2.348432 -4.414167 6.065532
-4.645734 -1.848556 -2.509432
-4.508368 2.162086 -9.978072
-2.500212 -4.330005 -8.052015
4.228945 -2.667587 3.393592
-1.821280 4.656494 -8.835353
2.062391 4.554837 0.810065
-3.832937 -3.210700 -9.734216
4.928011 0.845402 8.993501
-4.933533 -0.812558 -8.237506
-4.141949 -2.800760 0.838682
-4.796458 -1.412087 7.677650
1.436545 4.789190 -7.335728
-4.312728 -2.529897 -5.608185
3.290748 3.764436 -1.286832
3.938734 -3.079996 -2.996909
3.598506 -3.471419 -8.383022
4.477779 -2.224747 -3.117981
4.289220 -2.569551 9.205497
-4.107157 -2.851537 -0.835596
-4.596967 -1.966695 7.797976
4.309684 2.535079 3.136706
-4.870235 1.131731 0.101944
-2.178440 -4.500489 3.994582
-4.336999 -2.488059 1.677080
4.873185 -1.118958 -6.755839
-3.035871 -3.972844 -0.630658
-4.514050 -2.150199 -8.011529
-4.900910 0.990494 -2.992118
4.901700 0.986579 3.409514
-0.266326 4.992902 -5.819070
1.885759 -4.630757 5.565287
4.568319 -2.032353 -6.759490
-4.963205 0.605474 7.088205
-4.929988 -0.833797 9.258344
-2.209045 -4.485546 6.521969
-3.995617 -3.005835 -4.595083
-0.317641 4.989900 3.502388
2.958042 4.031128 6.393954
2.736744 -4.184523 -0.432564
4.992181 0.279523 4.608906
-4.352106 2.461540 5.760357
4.763050 -1.520972 -5.457226
2.233491 4.473423 -2.533257
-4.913319 -0.926984 1.783450
-2.670694 4.226984 5.584390
-0.586370 -4.965498 -8.971935
-1.106554 4.876017 -9.848716
4.563033 2.044195 2.593384
-4.422156 2.333352 6.863238
1.886748 -4.630354 1.023058
-0.357198 4.987225 5.589109
-0.276000 -4.992377 3.616658
-2.141192 -4.518329 3.778108
-4.473883 -2.232571 0.680193
-2.142044 4.517925 -9.269559
-2.419542 4.375594 -2.068661
3.708589 3.353560 1.256790
-4.620370 -1.911067 -8.520449
-3.280269 -3.773571 -4.963578
-4.806746 -1.376661 4.823911
-0.274055 4.992484 5.588552
-4.675872 1.770939 3.586844
3.535271 -3.535797 -0.552509
4.994112 0.242578 -3.495616
-4.126906 2.822879 6.828802
-4.783405 -1.455690 -1.390631
-0.276196 -4.992366 -2.685903
4.993810 -0.248720 -6.847324
-1.490573 -4.772651 5.721872
1.361197 -4.811148 6.273591
3.835218 -3.207975 -5.552682
4.202098 2.709682 4.330788
-4.878019 -1.097695 -5.416980
-2.126963 -4.525045 2.058109
0.562311 -4.968280 6.209342
-3.039499 -3.970069 5.157108
-3.615176 -3.454055 -8.449777
1.999066 4.582983 7.282606
-3.233875 -3.813405 8.108345
0.791255 4.936995 7.478594
1.329862 -4.819903 6.969211
4.405578 2.364505 -9.400129
-4.935124 -0.802837 9.778593
-1.089376 4.879883 -6.731578
4.014326 2.980803 0.132774
-3.618583 -3.450487 7.091783
0.507489 4.974179 2.065470
-2.980752 4.014364 -9.065374
3.948891 3.066962 8.198971
-1.437202 -4.788993 4.566538
-4.366295 -2.436282 -4.334268
0.097108 4.999057 -9.341866
2.015233 -4.575897 -6.649484
-4.948738 -0.714137 -6.926925
4.558178 -2.054998 4.563999
0.373990 -4.985994 0.834878
4.894225 1.023014 -5.487544
-4.642379 1.856966 -4.727635
1.862521 4.640152 -5.131177
-1.133140 4.869907 1.137584
-4.908059 -0.954440 -9.053175
-2.077409 4.548007 -2.484619
-4.970601 -0.541413 0.159155
3.785097 -3.266962 9.445047
-3.948973 -3.066858 -7.164236
4.999822 0.042196 0.843071
-3.907765 3.119194 5.856252
3.832525 -3.211191 -3.633865
-2.447132 -4.360223 8.564023
0.347841 4.987886 1.004950
4.914875 -0.918696 3.822437
-0.690105 4.952146 5.273610
1.274589 4.834814 -9.316562
3.041456 3.968570 -3.803670
-4.486183 2.207751 -3.485527
4.915670 0.914433 6.437304
-4.628345 1.891672 8.680977
-4.359632 2.448185 -9.724293
-4.636764 1.870942 -0.192735
-0.737018 -4.945382 2.375592
0.745787 4.944067 6.477081
4.995393 0.214581 -9.017528
-4.206468 -2.702893 -0.148187
4.997150 -0.168794 -3.570273
-4.482542 -2.215134 -6.386462
4.783963 1.453856 -4.420991
-0.222163 -4.995062 8.333009
-0.077156 4.999405 1.331194
-0.107326 4.998848 -4.927308
