0.031596 -4.999900 6.909573
-2.119050 -4.528756 8.376952
3.881973 -3.151236 2.862953
-4.945244 -0.737947 2.208874
-0.705335 4.950000 6.955792
3.028527 -3.978445 0.923372
-1.226477 -4.847242 6.668592
-2.197284 -4.491319 0.791100
-4.814337 1.349875 0.344522
-1.040985 4.890434 3.311597
2.291928 4.443767 6.754746
2.979457 4.015325 7.853855
4.511569 -2.155399 8.197572
0.906525 4.917135 8.846365
-4.925001 -0.862768 8.179895
3.075777 -3.942030 2.515259
3.044241 3.966434 5.211648
-4.429711 2.318978 2.230189
-4.951733 0.693063 9.527411
4.984122 -0.398153 8.075642
-0.728594 4.946630 5.989480
4.961938 -0.615769 6.261797
3.082046 3.937130 9.848992
2.225825 -4.477243 0.341601
4.960396 -0.628073 1.530722
4.829352 -1.295129 9.855856
2.995189 4.003604 0.347758
-2.962636 4.027752 2.265811
-0.692388 -4.951828 5.966406
2.270465 -4.454771 7.277047
4.318203 2.520540 0.773648
-2.573576 4.286806 7.800759
0.531037 4.971720 1.737828
4.967377 -0.570232 3.256391
-1.958409 4.600504 8.642967
-0.279834 4.992163 5.959210
-1.015518 4.895786 1.922168
-2.466196 4.349469 4.861487
3.689024 -3.375070 3.332288
-4.868028 -1.141184 6.354527
3.859178 3.179110 0.393545
-4.929596 0.836113 5.425199
-3.422040 3.645496 8.374836
-4.338760 -2.484987 7.816171
-4.999957 -0.020661 0.986194
-3.436580 3.631793 9.291269
4.435495 -2.307896 3.186433
-4.742966 -1.582490 2.500202
-4.477192 2.225926 4.483690
-3.968789 3.041170 0.508641
1.118360 -4.873322 5.974637
2.560843 4.294425 7.952055
4.898152 -1.004044 9.691140
3.104124 3.919747 9.239078
-4.824243 -1.314032 5.706093
-3.107329 -3.917206 0.587732
4.901866 -0.985755 7.984895
0.022436 -4.999950 6.712799
2.533441 4.310647 8.502732
4.441677 2.295975 1.913372
-4.904658 0.971766 9.033102
-3.174696 -3.862811 4.885377
2.661011 -4.233087 7.279720
-1.925722 4.614282 0.280768
-4.062953 -2.914174 7.441016
4.893890 -1.024615 8.557196
4.471726 2.236888 0.169576
1.428035 -4.791734 1.729780
0.845805 -4.927942 3.038860
3.740341 3.318110 2.114554
4.671730 -1.781836 7.549291
-4.867735 -1.142434 7.931813
-4.185882 -2.734664 6.660189
-0.722712 -4.947493 6.024244
4.999160 0.091655 8.445147
-3.348116 -3.713505 1.149320
0.881894 -4.921612 5.131798
2.748017 4.177129 7.497373
3.934159 3.085838 7.322939
3.616168 -3.453017 8.855008
4.983252 0.408895 6.066012
2.146568 4.515777 1.897428
3.097493 3.924989 9.906285
4.815798 1.344654 1.699912
-0.878474 -4.922223 6.833217
-4.864648 1.155510 4.570423
-4.982233 -0.421133 2.653824
1.559405 -4.750606 2.985511
-4.980401 -0.442275 0.659251
4.902155 0.984317 1.803375
-3.224762 -3.821114 3.758660
3.547760 3.523266 0.456751
1.461685 4.781577 9.622224
-2.627916 4.253711 8.222545
-3.184152 3.855019 0.517164
-4.606517 1.944223 8.531144
-4.977145 0.477524 9.256194
4.850983 1.211594 3.304386
-3.108067 -3.916621 2.117510
0.136988 4.998123 9.324575
0.138951 4.998069 6.463736
-3.239702 3.808455 1.863670
1.897210 -4.626078 6.742887
-3.198506 -3.843119 4.084382
-3.315099 3.743010 9.178757
-3.270146 -3.782347 7.974127
3.895278 3.134775 0.083254
4.303112 -2.546218 0.858080
-3.519254 3.551739 5.352551
4.877601 1.099548 0.416066
3.167943 3.868351 9.841745
4.857817 -1.183896 7.591234
4.900393 0.993050 5.613101
-4.196857 -2.717792 4.555601
-0.177265 -4.996857 4.664183
0.618624 4.961583 9.830781
3.749434 -3.307831 3.311096
1.710077 4.698472 8.437263
-0.526757 4.972175 8.880286
1.437710 4.788840 4.151118
-1.447926 4.785761 8.178216
1.338396 -4.817541 6.312844
-2.376603 4.399063 3.052403
2.805007 4.139074 2.312631
4.957971 -0.646935 9.689580
4.562300 -2.045830 1.724878
-4.741718 -1.586224 5.600026
-1.398342 -4.800483 1.189739
-4.419827 2.337762 5.665566
1.121315 -4.872643 8.289562
4.999661 -0.058186 5.304835
-2.152852 -4.512785 3.663396
2.982995 4.012698 0.397770
-4.999858 0.037644 7.892190
4.944559 0.742522 2.505407
-2.004103 -4.580783 9.030726
-4.741246 1.587637 8.622113
1.186892 -4.857086 3.332283
-2.002668 4.581410 3.416332
-0.165021 4.997276 2.907114
-0.487676 4.976160 6.017901
-3.082395 -3.936857 3.216395
-2.941739 -4.043040 7.599436
-0.032133 4.999897 0.490991
-4.372579 -2.424985 0.088451
2.334463 -4.421570 8.491483
2.926076 -4.054390 0.365977
3.798232 3.251681 5.838499
-4.721559 1.645259 1.394348
1.394153 -4.801701 7.777189
-3.847297 3.193479 8.529528
-4.286024 -2.574879 3.558828
-0.908699 -4.916733 0.973234
4.261415 2.615404 0.782772
4.610708 -1.934262 2.380473
-4.234212 2.659220 7.121251
4.787587 1.441876 5.896613
1.060354 -4.886272 1.493147
4.329368 -2.501315 3.090720
4.101890 -2.859108 2.695206
-2.698916 -4.209021 3.633798
2.884815 -4.083851 0.950152
3.627167 3.441462 0.600768
-4.998367 -0.127763 6.675395
-2.167468 -4.505783 0.384208
-0.187834 4.996471 4.099414
-4.553193 2.066018 9.838525
-4.533293 2.109326 4.521632
4.790604 1.431821 9.449160
2.241344 -4.469494 0.443308
4.945580 -0.735691 6.378459
-4.468011 2.244298 7.578207
4.024452 2.967117 6.452793
-3.436730 -3.631650 6.520321
-4.994274 0.239229 9.615737
-3.354647 -3.707606 8.162225
0.554365 4.969173 6.122223
-4.944975 -0.739747 2.039500
0.583071 4.965886 0.873594
-4.838693 1.259782 1.648543
4.934320 -0.807764 3.812576
3.949497 3.066182 0.734625
-1.013085 4.896290 7.331446
-4.730072 1.620623 1.681151
4.108916 2.849002 7.518575
3.721066 3.339710 3.448095
-3.607921 -3.461634 3.795387
-4.775686 1.480818 4.870182
-2.986911 -4.009783 9.949356
-3.462520 3.607070 6.776887
-0.775707 -4.939461 0.556919
4.118524 2.835094 7.400798
4.125720 2.824612 2.300476
-2.716410 4.197751 6.520928
4.488372 -2.203296 0.415590
-4.257918 2.621094 0.691961
2.805946 -4.138438 7.651566
3.453031 -3.616155 9.560105
-4.983143 -0.410229 8.740094
-4.999992 0.009177 5.091829
1.965014 4.597686 4.926226
2.882554 -4.085447 8.796055
4.905553 -0.967236 4.092728
-0.666894 -4.955326 5.372072
-2.234369 4.472985 0.640673
-4.903863 -0.975772 5.533367
-2.121834 -4.527452 6.546939
-0.352340 -4.987570 0.112293
-4.981861 -0.425513 9.626692
-4.745024 -1.576309 7.503389
-4.813965 1.351198 0.876328
-4.838012 1.262393 4.259491
0.117213 4.998626 0.182477
3.510943 3.559955 2.858607
2.987622 -4.009254 5.653609
-1.615085 -4.731966 0.669994
4.893149 -1.028150 2.373715
4.820119 1.329078 0.405002
-3.891421 -3.139561 8.951676
-2.111569 4.532249 4.198452
3.074717 -3.942856 0.086755
3.939237 -3.079352 1.383497
2.819838 4.128985 4.247335
4.999998 -0.004700 9.687570
3.229106 3.817444 8.866323
-4.180347 -2.743118 7.731356
-3.660817 -3.405645 5.937940
3.718966 3.342049 4.323625
4.460871 2.258458 6.091604
3.424303 3.643370 7.332535
4.774323 1.485208 4.924925
-4.951912 -0.691782 0.228181
3.993528 -3.008611 4.406827
4.998362 -0.127961 8.711098
-4.542387 -2.089670 0.990104
3.413572 -3.653426 1.870493
0.938152 -4.911199 7.190702
-3.781627 -3.270978 0.974296
2.304877 4.437065 3.943510
1.902826 4.623771 6.042144
-3.943007 -3.074523 2.493493
4.934327 0.807725 0.378733
4.793826 -1.420998 1.295009
3.789770 -3.261540 8.776434
-4.644953 -1.850516 4.808100
0.842147 4.928569 7.854730
4.566129 -2.037270 4.449395
0.391412 -4.984656 2.819487
-2.652197 -4.238614 6.124766
1.751974 -4.683010 0.357357
-4.729170 -1.623252 2.564802
-4.727813 -1.627202 1.942615
4.414913 -2.347028 6.312022
4.124878 2.825841 9.559466
-4.337386 -2.487385 9.601777
-1.785763 4.670230 8.802563
-4.882178 -1.079044 8.049796
3.174651 -3.862848 1.077966
2.365353 4.405123 7.073886
-4.711668 -1.673376 8.478869
-4.997733 -0.150558 5.311943
-4.003871 -2.994832 5.074142
1.023844 4.894052 4.797708
-3.083272 -3.936170 0.810485
-4.984718 -0.390617 6.770129
-1.917187 -4.617834 9.079724
2.050171 4.560351 8.403201
3.375199 3.688907 1.615468
4.996548 -0.185763 1.360216
-2.192780 -4.493519 6.951379
0.905538 4.917316 4.370656
-4.618854 -1.914730 8.661748
-4.337811 2.486644 9.410304
1.394084 -4.801722 1.939705
2.695833 4.210996 1.459525
-0.416776 -4.982599 0.705167
2.120733 -4.527968 2.012707
2.055375 -4.558008 1.135695
2.538677 4.307566 9.548851
1.311354 4.824972 6.656708
2.894336 4.077109 8.719895
4.138222 2.806264 5.031744
2.336222 -4.420641 4.385709
-1.795763 -4.666394 7.109509
0.481014 4.976809 0.234250
4.037301 2.949610 0.113732
-4.948228 0.717661 3.125743
-4.866418 -1.148032 4.829548
-4.993238 -0.259947 7.810270
2.029817 -4.569447 7.398128
3.053361 -3.959418 0.176440
1.560522 -4.750239 7.296848
4.562372 -2.045669 4.626891
-2.496786 -4.331981 6.704981
-4.257669 2.621498 5.386008
-2.790475 -4.148885 0.436712
-4.944648 -0.741930 6.761730
-2.426536 4.371719 0.359193
3.527056 3.543992 1.038415
1.156409 4.864434 7.792654
1.351853 4.813782 4.421991
-0.838390 -4.929209 4.985741
-4.935742 -0.799030 1.741261
-4.782132 1.459868 8.067827
-4.006386 -2.991466 7.478541
-4.967721 -0.567227 2.576092
-4.886774 -1.058034 6.202070
-4.733396 -1.610887 7.611008
4.343385 2.476894 5.176756
-3.949606 -3.066042 0.267991
-4.998198 -0.134227 9.983929
4.634102 1.877525 8.063844
-4.932141 0.820965 3.731369
-1.843175 4.647871 0.158381
-3.700129 3.362893 6.232468
2.285305 4.447177 9.460197
1.714595 -4.696825 1.978908
-2.873647 4.091718 1.464074
-2.836084 4.117842 7.062744
-4.948115 0.718445 0.502939
4.069632 -2.904840 7.844835
-4.713059 1.669454 9.010132
-1.555910 4.751752 4.389077
-4.584284 -1.996080 9.496339
4.781046 -1.463421 7.102970
3.872754 3.162559 8.111980
4.876906 -1.102628 5.094853
-4.408348 2.359337 2.265689
4.167217 -2.763024 5.893267
-2.418810 -4.375998 3.993265
4.082333 -2.886963 7.549607
3.874706 3.160167 4.847775
-4.216690 2.686917 2.547866
3.094482 -3.927363 2.788129
-0.201887 -4.995922 8.734386
4.969140 -0.554663 3.223626
-0.681314 -4.953364 9.118615
4.487704 -2.204658 4.691138
-4.964065 -0.598380 8.895724
2.096888 4.539059 8.189870
-1.237039 4.844557 5.932024
1.151499 -4.865599 6.769287
4.741849 -1.585834 8.224084
3.235346 3.812157 3.257016
-2.584975 4.279942 7.917482
-4.923947 -0.868762 5.558708
-3.783140 -3.269228 5.454002
0.850438 -4.927145 1.869479
4.672988 -1.778534 9.531271
-4.499162 2.181179 8.159815
-2.503441 -4.328139 7.429588
-2.618342 4.259611 9.110525
1.704334 -4.700558 2.170602
-2.391961 -4.390732 8.387993
3.448173 -3.620787 9.049565
-4.070678 -2.903374 9.809253
-3.336261 3.724159 7.502729
-4.322581 2.513025 0.528164
-2.817045 -4.130891 4.198663
-0.599201 4.963966 1.828762
-3.118967 -3.907947 6.567024
-4.578046 -2.010347 6.955117
4.999968 -0.017764 7.547671
0.698544 -4.950963 5.709965
-4.575939 2.015138 0.800549
-1.682825 -4.708301 0.424141
-0.634777 -4.959542 1.975888
-3.004931 3.996297 5.243620
2.929122 -4.052190 8.894815
-4.704917 -1.692263 8.308781
3.038797 -3.970606 0.360068
0.142643 -4.997965 3.806879
-4.973936 0.509864 7.575200
-4.876525 -1.104311 2.271030
-2.331179 -4.423302 2.344053
-2.691887 -4.213519 4.873063
2.642463 -4.244690 9.251239
0.191207 4.996343 4.588883
-4.657169 1.819555 8.221607
4.130438 -2.817709 5.186995
0.346611 4.987972 3.289984
-4.842220 -1.246157 8.722733
4.131283 2.816470 4.114859
0.030211 4.999909 1.264937
-2.226687 4.476814 7.468872
3.538896 -3.532169 4.125547
1.463894 4.780901 9.091855
-1.020783 -4.894691 5.168440
-1.847591 4.646118 8.832506
-4.303716 2.545197 6.965789
-0.656637 -4.956695 1.674088
-3.684019 -3.380533 3.055220
4.310731 -2.533297 4.764074
2.873443 4.091861 1.776666
0.045749 4.999791 3.009685
-3.515241 3.555711 2.018342
-2.522353 4.317145 5.176733
4.722192 1.643441 4.559424
0.262823 -4.993088 3.896308
-2.070593 4.551115 2.677779
-4.868533 1.139030 1.138985
0.901400 4.918077 5.995115
-4.288989 -2.569937 2.492683
4.995934 -0.201611 2.176591
-1.189888 4.856353 9.262378
-4.381334 2.409131 8.441938
4.976176 -0.487516 8.824111
3.620914 -3.448041 0.368270
4.035470 2.952115 6.312466
3.774773 -3.278885 5.508237
-4.396181 -2.381930 2.581726
-4.037027 -2.949986 9.397760
3.322453 3.736483 1.475207
2.824232 4.125980 2.982956
0.064072 4.999589 8.122943
-3.298584 3.757571 1.320717
-1.672103 4.712120 4.181368
2.935625 4.047482 3.000424
-4.947825 -0.720433 7.604570
-4.502975 -2.173297 5.229955
3.948328 -3.067687 7.973804
4.864197 -1.157407 9.714710
1.563467 -4.749271 2.393335
1.091685 4.879367 0.993599
1.401223 4.799643 0.337407
-3.831898 -3.211939 0.950431
-3.093008 -3.928524 8.481346
-4.520959 2.135633 2.228050
0.803838 4.934961 7.611380
-4.036239 2.951063 9.675552
3.063716 3.951411 2.620038
-1.177381 4.859401 0.840824
-0.580214 4.966221 2.812880
4.671661 1.782016 5.182503
-4.286394 -2.574262 0.581341
-0.876097 4.922647 1.092558
-3.472102 -3.597848 3.318256
-1.139656 -4.868386 7.728543
2.241858 -4.469236 0.435998
-2.359928 -4.408032 7.060012
4.997202 -0.167238 4.027885
0.821726 4.932014 7.599822
3.615835 3.453366 6.872314
2.496319 -4.332250 1.071258
4.979924 -0.447611 2.663777
-4.743455 -1.581023 2.964922
2.232546 4.473895 2.663525
2.661301 -4.232904 9.197023
-4.899090 -0.999457 9.560827
-4.967731 -0.567141 3.861312
-2.519929 -4.318560 5.014667
-4.999974 0.016020 6.675134
4.997508 0.157857 0.336325
4.292352 -2.564316 5.196994
-0.579708 -4.966280 4.894435
4.345515 2.473156 6.462341
-0.814979 -4.933134 2.388242
4.889576 -1.045011 0.861745
-1.820411 -4.656834 7.058157
2.205719 4.487182 8.205702
-3.064247 3.950999 6.651155
-3.862032 -3.175644 8.239725
4.869658 1.134211 7.962183
-2.802608 4.140699 2.120411
2.164395 4.507260 1.034331
-3.600437 3.469416 9.945419
1.244543 4.842635 5.647346
2.851347 4.107289 6.002095
2.464797 4.350261 0.435105
4.617252 1.918589 1.239162
-4.057155 2.922241 7.631677
1.167748 4.861724 6.646314
4.012383 -2.983418 6.387489
1.013808 -4.896141 2.094514
-1.106912 4.875935 2.014255
3.190246 3.849978 4.564549
-0.675682 -4.954135 3.148488
3.885836 3.146471 5.954509
-3.266864 3.785182 1.495306
0.677355 4.953907 6.184408
4.883755 1.071884 2.606676
4.340083 2.482676 8.497805
-4.587430 -1.988840 0.244465
1.548140 4.754289 6.825602
-2.645556 4.242763 2.982435
-4.939058 0.778269 7.732014
1.540234 4.756856 5.969342
-2.504659 -4.327434 3.108234
4.519014 -2.139746 7.665499
3.172223 -3.864841 9.289797
-4.991404 0.293070 6.901620
-3.915942 -3.108922 0.879948
4.999907 -0.030502 7.262437
-4.926125 0.856323 4.298361
-2.119713 -4.528445 7.532893
-3.859868 3.178273 5.530224
-3.345553 -3.715814 7.179602
1.813869 -4.659386 4.706976
2.122434 -4.527170 6.660165
-3.288979 -3.765982 1.042964
-4.649707 1.838540 3.176406
3.564041 3.506795 7.478779
-1.465814 -4.780313 5.195557
-4.671197 1.783232 8.628054
-1.545752 -4.755066 0.469529
2.070615 4.551105 5.086373
-1.900622 -4.624677 2.652722
-1.943450 4.606843 5.254992
4.820918 -1.326180 5.569329
-4.918583 -0.898635 5.124270
1.209439 4.851521 4.472038
-1.199527 4.853981 5.237570
-4.291269 -2.566128 8.688115
1.069753 -4.884222 5.618164
-4.862578 1.164190 9.250015
-1.961909 4.599012 9.382052
-4.868804 -1.137870 1.520546
-3.830236 -3.213922 8.859176
3.213869 -3.830280 8.048924
3.782893 -3.269513 9.108739
-4.056993 2.922466 4.105029
1.572117 4.746414 9.578209
-2.590380 -4.276673 2.039055
4.992287 0.277618 7.860504
3.497677 -3.572990 6.614124
-4.939686 -0.774278 8.709652
4.038657 2.947753 5.122396
1.886961 -4.630268 8.600402
4.881315 1.082940 7.653069
-2.297060 4.441117 9.310289
-4.912130 -0.933261 1.228775
-3.630060 3.438410 0.017421
-3.606870 -3.462728 8.044586
-3.823707 -3.221687 1.815925
-3.439903 -3.628645 3.324224
2.742445 4.180789 1.492125
4.565300 -2.039127 5.741151
1.230580 4.846202 6.728289
4.281443 2.582489 1.123133
4.991796 -0.286304 6.668275
0.682034 4.953264 3.900894
-4.678735 1.763359 9.574137
-2.761590 4.168167 6.655651
4.839938 -1.254992 6.496383
3.405524 -3.660930 4.990785
4.742991 1.582415 6.462371
-4.785675 -1.448209 4.531742
-4.906571 -0.962058 2.809892
-4.320141 2.517217 5.080696
-2.099316 4.537937 2.566326
-4.394083 -2.385798 7.204294
4.226880 -2.670858 9.505755
-3.673003 3.392499 9.031733
-0.109752 4.998795 0.487721
-4.958131 0.645707 5.643949
4.642632 -1.856332 5.526781
-1.992378 4.585895 5.500153
-2.165114 -4.506915 2.148494
-4.872708 -1.121032 5.828816
0.445334 -4.980128 1.901235
4.873960 -1.115577 4.628445
4.233548 -2.660276 6.640003
2.142429 4.517743 4.832899
4.179566 -2.744308 0.641311
-4.631620 -1.883640 8.060597
-0.261828 -4.993140 8.353915
-4.728033 1.626562 4.229665
-4.636628 -1.871277 0.515503
0.303796 4.990762 5.021034
4.613285 -1.928109 9.536301
-3.708623 3.353522 1.293371
0.094707 4.999103 2.207118
0.611763 4.962433 6.728582
-1.438628 -4.788565 4.875646
-4.018431 2.975267 9.508435
3.854790 -3.184430 1.474168
-4.498682 -2.182169 0.297628
4.268745 -2.603424 7.977987
-3.094184 3.927598 4.968866
1.692565 4.704809 2.491866
1.052155 4.888044 4.348646
-0.812843 -4.933486 7.653672
-4.993778 -0.249353 1.406618
-3.531140 3.539923 7.468896
3.673552 -3.391904 7.507026
3.275853 -3.777404 1.111589
0.312798 4.990206 9.908869
-4.669344 1.788079 0.612066
-4.758181 1.536136 7.317156
-3.988102 3.015799 7.575947
1.822104 4.656172 5.255679
-4.496690 2.186271 1.996724
-2.899340 4.073553 5.256777
-2.147575 4.515299 8.523388
-4.672966 1.778591 2.679803
4.796057 1.413447 6.311000
4.862792 1.163293 3.702907
-2.709798 4.202023 1.126215
4.497534 -2.184534 1.492089
4.913266 0.927263 8.774578
-4.996881 -0.176583 1.743380
4.603715 1.950849 6.804405
-0.554661 -4.969140 6.379319
4.845290 -1.234167 6.397206
4.802015 -1.393072 7.707935
-4.486022 2.208078 8.285837
4.949054 -0.711945 6.488307
4.965147 -0.589336 7.282295
4.999545 0.067475 8.633310
4.732947 -1.612206 9.975050
-3.637769 3.430253 2.255145
-4.742700 -1.583285 8.358710
3.106801 3.917625 6.736895
-4.308531 -2.537038 9.315469
-4.322504 2.513158 9.190582
0.334081 -4.988827 3.849064
3.626111 3.442575 0.843538
-3.075087 -3.942568 2.190867
-2.839277 4.115641 3.004936
-2.441910 4.363150 8.341000
-2.125936 4.525527 8.737322
4.300382 2.550825 7.522969
4.753740 1.549825 5.889246
-2.586008 4.279318 6.487855
-1.708602 -4.699008 8.998758
-2.460149 -4.352892 1.888417
-3.879545 -3.154225 2.522257
4.126940 2.822829 1.872662
-3.524499 -3.546535 1.534379
-2.888693 4.081109 6.511979
-2.077880 4.547792 4.560151
1.680577 4.709104 4.911762
-0.622393 -4.961111 0.609709
4.914973 -0.918172 4.742346
-3.808598 -3.239535 1.385342
4.969646 0.550110 5.572321
-4.945310 0.737505 0.944877
3.610024 3.459440 4.717621
-4.799061 1.403216 8.436648
-4.962487 0.611328 2.121263
2.854065 -4.105400 1.889027
1.546359 -4.754868 8.139186
-4.281072 -2.583102 2.889877
2.449089 4.359124 6.084651
-3.348989 3.712718 2.651979
1.557779 -4.751139 8.797039
3.949471 -3.066215 1.135538
4.879529 -1.090962 3.141984
4.207432 2.701392 0.198667
3.889503 3.141937 4.303168
-4.270613 2.600359 1.858292
4.160501 -2.773127 9.687697
4.146406 2.794157 4.383786
0.428011 4.981647 9.425369
-4.731376 -1.616812 6.957905
0.492307 4.975704 2.395936
1.161048 4.863329 9.195577
4.525752 -2.125457 9.487072
4.216838 2.686685 2.483710
-4.924396 0.866212 8.461009
-4.911886 0.934547 3.102781
4.157693 -2.777335 8.299673
-3.982374 3.023359 0.146177
4.964934 -0.591130 9.176205
2.782824 -4.154021 3.845453
2.904299 4.070018 9.079470
1.693625 4.704427 5.917120
-4.984498 0.393418 7.102754
-1.340646 -4.816915 2.203464
4.137073 -2.807958 9.219673
-4.955570 -0.665072 8.605108
4.775404 1.481728 5.473244
4.623687 1.903028 5.897603
-0.367615 4.986468 1.948568
1.680765 -4.709037 7.904686
-4.069668 2.904790 2.838799
4.412729 2.351133 1.591639
1.576369 4.745004 1.650044
-4.474200 2.231935 2.576582
4.094537 -2.869628 6.122693
0.624381 -4.960862 5.302164
2.400332 4.386161 9.284625
0.382952 4.985313 7.355245
-4.996190 -0.195153 4.034211
-3.064348 3.950920 1.676741
4.460025 -2.260127 5.289020
4.536135 -2.103208 6.463126
-4.374880 2.420832 2.061118
-3.423014 3.644582 5.210547
3.193250 3.847486 1.184441
4.847182 -1.226712 5.306088
-1.458568 4.782529 8.995315
4.593978 1.973668 5.671995
4.999689 -0.055789 7.823516
-4.020383 -2.972629 4.199948
4.665473 1.798155 7.214805
4.963244 0.605149 5.632211
1.022989 4.894231 3.178000
1.571900 -4.746486 3.483262
3.621213 3.447726 0.531998
3.406085 3.660408 8.818680
-4.972661 -0.522153 4.014089
4.990791 0.303329 9.434667
4.224101 2.675251 2.300859
4.939086 0.778091 8.006991
4.812487 -1.356456 5.150324
-4.988265 0.342361 4.308845
-1.229269 -4.846535 4.624332
-0.060686 4.999632 8.365484
2.678454 -4.222071 1.142348
1.316502 -4.823570 0.905543
-4.880927 1.084690 8.433879
-2.067271 -4.552624 6.407008
-4.476828 -2.226660 9.331287
4.754530 1.547399 3.691001
4.033482 2.954831 2.803114
4.674087 1.775644 9.493121
-4.996579 -0.184934 8.743430
1.407400 4.797835 4.406502
4.802300 -1.392089 6.156253
4.885861 1.062243 7.166244
4.999152 -0.092077 7.022226
-0.624967 4.960788 0.503246
4.902790 -0.981146 9.628186
-4.418334 2.340581 8.545675
-3.106048 -3.918222 8.156323
4.999711 -0.053734 7.462280
-1.596884 4.738139 7.140424
-2.742215 -4.180939 8.214932
-1.360330 4.811393 8.125259
3.671863 -3.393732 6.086002
-1.068871 4.884415 1.788413
-4.803787 -1.386951 4.083000
4.980178 0.444780 9.017817
-1.903579 -4.623460 2.745559
-1.955876 -4.601581 7.033268
4.737245 -1.599535 7.951329
0.786720 4.937719 5.594882
4.696082 1.716629 1.688311
4.875965 -1.106781 3.286002
-3.906995 -3.120158 0.117316
-1.607434 -4.734570 5.783127
-2.882702 -4.085343 6.095857
4.423401 2.330992 0.388904
3.037364 -3.971702 0.751143
1.736709 -4.688693 6.306571
-4.212210 2.693934 2.317458
-4.895635 -1.016247 3.697171
-4.271946 2.598168 6.504347
-2.829400 -4.122438 2.507933
3.841657 -3.200261 8.419655
4.805774 1.380048 0.302741
2.145991 -4.516052 5.398652
-4.012252 2.983595 2.884178
4.026897 -2.963798 9.103175
1.237468 4.844448 1.757690
4.985038 -0.386514 9.944113
3.809873 -3.238034 8.184793
-4.350257 2.464805 6.213631
4.967368 0.570314 0.632208
-1.745520 -4.685420 0.806619
-4.697018 1.714066 1.481955
4.981209 0.433082 9.515714
-4.306525 -2.540441 6.337437
-4.347969 2.468839 2.201971
4.985209 -0.384306 4.676932
3.416999 -3.650222 2.455389
1.442713 4.787335 9.519677
-1.352204 4.813683 4.481784
4.628220 1.891979 9.462495
0.420174 -4.982314 7.721850
-3.050581 -3.961559 7.893275
4.832385 1.283767 6.314267
4.624071 1.902095 4.590522
4.925172 -0.861788 4.507208
4.437292 -2.304440 0.877988
-4.632290 1.881991 2.116716
4.878457 -1.095743 9.252535
-0.601443 4.963695 6.004158
-1.761325 -4.679501 8.426332
4.999778 -0.047133 3.318262
3.551880 -3.519112 6.036059
3.359096 3.703576 9.843293
1.765412 -4.677961 2.812218
4.963052 0.606724 5.846329
2.742017 4.181069 1.154115
0.827085 -4.931119 6.797784
4.935958 0.797697 4.544955
4.997276 0.165015 4.012749
0.485219 4.976401 2.456602
4.265124 2.609351 3.845611
-4.677679 1.766159 3.532313
-4.993617 -0.252570 2.970626
-0.644534 -4.958284 5.693827
0.920008 -4.914630 8.656234
3.795930 3.254369 9.031569
4.979023 -0.457528 8.498253
-4.977821 0.470421 8.044988
1.940488 4.608091 8.444075
2.082577 -4.545644 3.071657
4.686077 -1.743756 3.138244
2.930726 -4.051030 5.001328
-3.334705 3.725553 9.339069
-0.398271 -4.984113 6.108081
2.956556 4.032217 1.388126
4.482160 -2.215906 4.859917
4.750440 1.559909 3.544326
-2.883615 4.084699 5.659341
-4.263474 -2.612047 0.205105
-4.885448 -1.064143 2.218044
-4.997869 0.145951 2.791601
4.766866 1.508970 0.810426
4.414316 -2.348152 7.290819
4.209581 2.698041 8.493186
-0.332035 -4.988963 3.346905
1.678129 -4.709977 1.026313
-4.997216 0.166822 2.673141
-4.284394 -2.577589 4.497115
-4.972027 0.528152 0.454648
1.796776 4.666004 4.055932
0.162943 -4.997344 6.817700
1.181938 4.858294 5.678329
-4.789266 1.436291 0.595177
0.625968 -4.960662 2.716433
-4.426782 2.324565 9.007918
2.395079 -4.389032 5.195603
-0.200394 -4.995983 3.863088
-4.448220 2.283273 5.057063
4.983346 0.407753 6.184972
-3.417329 3.649913 1.671852
-1.033778 -4.891963 7.479255
2.956835 -4.032012 6.899829
4.016126 2.978377 8.240136
-0.646203 -4.958066 0.898011
4.972638 0.522370 6.920545
4.283433 2.579187 7.073881
4.406831 2.362169 5.841856
4.225273 2.673400 2.028635
1.120365 -4.872862 1.931793
-2.269883 -4.455068 8.181836
1.604893 -4.735432 6.248411
-2.061866 4.555075 0.969767
-4.696381 1.715810 6.797439
2.989479 -4.007869 4.990666
4.998560 -0.119985 4.942198
-2.200396 -4.489795 5.466696
4.894423 1.022068 1.118849
0.924144 4.913854 5.516609
-0.042773 -4.999817 7.595868
3.014646 -3.988974 1.638760
-4.126204 2.823906 8.999765
-4.854065 -1.199190 7.707591
-3.022596 3.982953 3.849865
4.990371 0.310152 2.788378
4.979918 -0.447684 5.339780
-2.723146 -4.193385 6.286915
1.967585 4.596587 1.665427
4.021907 2.970566 3.376706
-0.298278 -4.991095 5.252762
3.137186 3.893336 3.092030
2.442201 -4.362987 2.797605
2.942014 -4.042840 5.039577
1.314590 -4.824091 7.601546
4.302550 -2.547167 4.863867
-2.108416 -4.533716 8.603599
2.922401 4.057040 1.116283
4.999338 0.081360 2.272064
1.835163 4.651041 9.934671
2.138703 -4.519508 1.897422
-0.342676 -4.988244 8.637901
2.645588 -4.242742 5.178327
-4.781522 1.461863 3.738109
-0.869074 -4.923892 0.091264
-3.187168 -3.852527 5.146984
-2.627573 -4.253923 6.501765
3.841713 -3.200194 9.538212
-3.140096 3.890989 6.053831
-0.855023 -4.926351 9.287850
-2.868214 -4.095528 4.010108
-4.995049 -0.222456 2.586066
1.412259 4.796408 4.668550
4.583361 -1.998200 9.358421
2.376465 -4.399138 1.948412
-3.908995 3.117653 3.899846
-4.655464 -1.823912 5.263227
3.096209 3.926002 9.356859
1.080032 -4.881960 3.258485
3.666440 -3.399591 2.831316
4.204748 2.705567 0.108407
-3.861456 3.176344 7.088744
-2.493286 4.333996 3.824818
-4.971119 -0.536637 3.214130
-4.556222 2.059330 1.382593
0.923819 4.913915 7.366334
0.165554 -4.997258 4.465730
0.557571 -4.968814 2.114492
-4.502199 -2.174904 3.495809
2.909350 4.066409 1.093114
1.826802 -4.654331 9.414553
-4.936982 -0.791336 6.983378
-4.946878 -0.726913 9.758441
-1.773800 4.674787 5.745924
-4.889915 -1.043422 6.135851
-4.869217 1.136103 6.436720
-2.614910 4.261719 5.588691
-3.986782 3.017543 3.597938
4.678581 1.763768 5.939426
-3.895287 3.134763 5.780107
-1.538284 -4.757487 3.303502
-2.509173 -4.324818 6.799197
-4.754819 1.546512 7.267956
0.913921 -4.915765 6.563549
4.489016 -2.201985 5.277074
-2.760389 4.168963 7.497325
-4.156622 -2.778938 2.650993
-2.273355 4.453297 9.255288
1.207051 4.852116 3.013492
4.501849 -2.175628 0.281244
-0.482026 4.976711 1.703346
2.614888 4.261732 2.110272
-4.012379 -2.983424 9.751776
-2.177360 4.501011 6.941139
3.437201 -3.631205 6.013544
-4.133426 2.813323 1.690377
3.926729 3.095287 2.401504
4.988879 -0.333293 5.589973
-0.251038 4.993694 0.269511
4.321848 2.514285 7.388655
-2.802399 4.140840 9.684101
-4.987628 -0.351524 7.721250
-4.989243 -0.327801 9.032553
2.351724 -4.412414 0.216850
0.295077 4.991285 8.498034
-1.197202 4.854555 3.394410
0.785089 -4.937979 9.748839
1.550233 4.753607 7.367504
1.896111 4.626528 6.455641
-4.209985 2.697412 0.119294
-0.298084 4.991107 6.487061
0.803130 -4.935077 7.036104
3.111032 3.914266 4.187822
4.967163 0.572094 6.001354
3.226051 -3.820025 0.660006
4.072171 -2.901279 6.806205
1.278745 4.833716 2.699735
-4.405225 2.365163 3.758767
-2.694171 4.212059 2.035976
4.668138 -1.791225 4.020324
4.427972 -2.322298 3.567777
4.999584 0.064487 9.698381
4.255639 2.624793 5.094999
4.543625 2.086976 5.652040
-1.625899 -4.728261 5.982674
-4.902375 0.983220 4.082625
-4.869806 -1.133574 0.518762
1.290778 -4.830517 3.405098
3.010343 -3.992222 8.015208
4.655235 -1.824498 8.667145
0.432135 -4.981291 2.819254
4.176204 2.749422 5.776407
0.547131 4.969975 8.903673
4.926749 -0.852730 1.216409
3.751439 3.305556 5.516920
4.681057 -1.757186 3.637884
-4.140164 2.803398 8.782121
2.597490 -4.272358 5.933713
-4.299860 -2.551706 0.109966
-3.038351 3.970947 2.115753
-0.930935 4.912572 7.613936
4.459683 -2.260802 8.773698
4.989332 -0.326443 0.194099
2.283844 -4.447927 4.187609
3.245481 3.803531 2.926228
3.587291 3.483008 2.852599
3.777088 3.276219 9.710977
4.231869 2.662947 3.959289
-0.280357 4.992134 7.621757
-2.804147 4.139657 1.986154
0.505318 4.974400 8.674208
2.803816 4.139881 5.564419
-3.146797 3.885572 8.469361
1.588681 -4.740896 1.565272
1.550725 -4.753446 4.567887
1.804044 4.663199 7.571949
-4.999958 -0.020408 2.930980
1.146153 -4.866861 5.320806
4.456674 2.266729 7.415872
4.704854 1.692439 0.641642
-4.392244 2.389182 5.076469
1.349606 -4.814412 8.940540
3.948400 -3.067595 4.481021
2.964502 4.026379 5.755950
2.441214 4.363539 5.986531
-4.705508 -1.690620 1.185611
0.912009 -4.916120 0.171085
-1.538209 -4.757511 9.767657
-4.971271 -0.535228 9.038465
4.998960 -0.101995 9.278455
-4.993577 -0.253359 0.832775
4.098281 2.864279 6.376891
